ply
format ascii 1.0
element vertex 1135
property float x
property float y
property float z
property float u
property float v
end_header
905.292 -1121.05 2268.47 1865.29 -521.047
935.085 -1119.6 2265.54 1895.08 -519.598
972.346 -1126.9 2280.31 1932.35 -526.897
997.761 -1120.44 2267.24 1957.76 -520.44
1028.09 -1119.72 2265.78 1988.09 -519.718
1051.39 -1111.61 2249.38 2011.39 -511.612
1076.79 -1106.13 2238.29 2036.79 -506.132
1111.32 -1110.06 2246.24 2071.32 -510.058
1145.81 -1113.75 2253.7 2105.81 -513.747
1171.71 -1109.11 2244.32 2131.71 -509.112
1210.8 -1116.87 2260.01 2170.79 -516.867
1223.98 -1100.94 2227.79 2183.98 -500.942
1258.88 -1104.85 2235.7 2218.88 -504.849
1312.72 -1124.8 2276.06 2272.72 -524.798
1345.57 -1126.26 2279.02 2305.57 -526.258
1381.6 -1130.26 2287.11 2341.6 -530.257
1404 -1123.17 2272.77 2364 -523.171
-1372.14 -1116.28 2271.39 -412.135 -516.282
-1377.01 -1146.18 2332.22 -417.006 -546.175
-1341.4 -1142.99 2325.75 -381.398 -542.994
-1278.35 -1115.71 2270.23 -318.35 -515.71
-1258.32 -1125.55 2290.25 -298.319 -525.547
-1223.27 -1122.11 2283.26 -263.274 -522.112
-1204.7 -1134 2307.44 -244.696 -533.998
-1163.19 -1124.36 2287.83 -203.186 -524.358
-1139.35 -1131.74 2302.84 -179.345 -531.736
-1100.76 -1124.47 2288.05 -140.758 -524.468
-1070.47 -1125.5 2290.15 -110.469 -525.501
-1043.14 -1129.8 2298.9 -83.1375 -529.799
-1019.17 -1138.12 2315.83 -59.1717 -538.123
-978.21 -1127.39 2294 -18.2104 -527.392
-945.815 -1126.15 2291.47 14.1849 -526.151
-914.146 -1125.72 2290.59 45.8542 -525.718
-888.919 -1133.47 2306.37 71.0812 -533.469
-859.213 -1135.87 2311.25 100.787 -535.87
-827.207 -1135.3 2310.08 132.793 -535.296
-795.361 -1134.91 2309.29 164.639 -534.906
-760.849 -1130.52 2300.37 199.151 -530.522
-728.823 -1129.61 2298.52 231.177 -529.612
-699.69 -1133.31 2306.04 260.31 -533.307
-667.603 -1132.34 2304.07 292.397 -532.34
-638.462 -1136.52 2312.58 321.538 -536.523
-603.646 -1130.51 2300.35 356.354 -530.511
-573.744 -1133.55 2306.53 386.256 -533.547
-539.975 -1128.85 2296.98 420.025 -528.855
-509.09 -1129.98 2299.27 450.91 -529.982
-477.851 -1130.42 2300.16 482.149 -530.421
-444.808 -1126.35 2291.89 515.192 -526.352
-413.53 -1126.48 2292.14 546.47 -526.478
-384.324 -1132.73 2304.86 575.676 -532.728
-351.439 -1128.29 2295.82 608.561 -528.286
-320.24 -1128.91 2297.09 639.76 -528.913
-289.109 -1129.94 2299.19 670.891 -529.944
-258.109 -1131.8 2302.97 701.891 -531.803
-225.209 -1124.69 2288.49 734.791 -524.686
-194.399 -1127.4 2294.01 765.601 -527.398
-163.506 -1130.57 2300.47 796.494 -530.571
-132.317 -1132.73 2304.86 827.683 -532.73
-100.666 -1131.04 2301.42 859.334 -531.039
-69.124 -1129.6 2298.5 890.876 -529.605
-37.8015 -1132.34 2304.08 922.199 -532.344
-6.31831 -1133.6 2306.64 953.682 -533.601
25.2034 -1133.44 2306.32 985.203 -533.445
56.5822 -1130.61 2300.54 1016.58 -530.608
88.0859 -1131.4 2302.16 1048.09 -531.401
119.492 -1130.85 2301.04 1079.49 -530.85
151.455 -1134.71 2308.89 1111.46 -534.709
182.815 -1133.49 2306.41 1142.82 -533.492
214.238 -1132.97 2305.35 1174.24 -532.969
246.62 -1137 2313.55 1206.62 -536.998
278.097 -1136.42 2312.37 1238.1 -536.418
309.377 -1135.23 2309.95 1269.38 -535.228
340.584 -1134.02 2307.49 1300.58 -534.02
372.465 -1135.07 2309.62 1332.47 -535.07
403.679 -1134.08 2307.61 1363.68 -534.081
434.055 -1131.05 2301.45 1394.06 -531.051
465.857 -1131.9 2303.17 1425.86 -531.896
497.523 -1132.33 2304.04 1457.52 -532.325
529.164 -1132.65 2304.7 1489.16 -532.649
562.76 -1136.89 2313.32 1522.76 -536.886
593.267 -1134.76 2309 1553.27 -534.764
624.713 -1134.56 2308.59 1584.71 -534.56
654.225 -1131.03 2301.41 1614.22 -531.035
685.358 -1130.5 2300.33 1645.36 -530.505
714.595 -1127.03 2293.27 1674.6 -527.033
750.518 -1133.95 2307.35 1710.52 -533.953
777.417 -1127.23 2293.67 1737.42 -527.231
812.776 -1132.82 2305.05 1772.78 -532.822
842.093 -1129.89 2299.08 1802.09 -529.888
871.698 -1127.54 2294.3 1831.7 -527.538
901.397 -1125.47 2290.09 1861.4 -525.468
928.445 -1120.34 2279.65 1888.45 -520.339
960.498 -1121.39 2281.78 1920.5 -521.386
997.221 -1127.65 2294.52 1957.22 -527.648
1022.98 -1121.51 2282.04 1982.98 -521.513
1039.76 -1106.18 2250.83 1999.76 -506.177
1078.48 -1114.41 2267.58 2038.48 -514.406
1131.83 -1136.86 2313.26 2091.83 -536.859
1143.72 -1117.58 2274.04 2103.72 -517.581
1169.61 -1112.65 2264 2129.61 -512.65
1199.88 -1112.03 2262.74 2159.88 -512.027
1227.46 -1109 2256.57 2187.46 -508.997
1258.93 -1109.56 2257.71 2218.93 -509.557
1306.63 -1124.05 2287.19 2266.63 -524.047
-1442.98 -1131.55 2315.34 -482.982 -531.548
-1350.15 -1107.32 2265.75 -390.147 -507.316
-1344.55 -1128.61 2309.33 -384.554 -528.614
-1319.89 -1134.54 2321.46 -359.886 -534.54
-1271.27 -1119.67 2291.03 -311.273 -519.668
-1247.52 -1126.49 2304.99 -287.52 -526.493
-1222.06 -1132.1 2316.46 -262.065 -532.096
-1192.59 -1134.18 2320.71 -232.592 -534.175
-1149.8 -1123.36 2298.58 -189.802 -523.358
-1135.84 -1140.88 2334.44 -175.836 -540.884
-1084.57 -1120.88 2293.5 -124.572 -520.877
-1059.35 -1127.39 2306.82 -99.3453 -527.389
-1026.65 -1126.1 2304.2 -66.6469 -526.105
-999.139 -1130.61 2313.42 -39.139 -530.613
-961.486 -1123.56 2298.99 -1.48553 -523.56
-932.723 -1126.77 2305.56 27.2772 -526.771
-907.119 -1134.16 2320.67 52.8814 -534.156
-879.105 -1138.95 2330.49 80.8947 -538.954
-852.123 -1145.5 2343.88 107.877 -545.499
-815.355 -1138.89 2330.35 144.645 -538.887
-782.448 -1137.35 2327.21 177.552 -537.35
-744.485 -1128.02 2308.12 215.515 -528.021
-714.161 -1129.95 2312.07 245.839 -529.953
-682.142 -1129.26 2310.65 277.858 -529.26
-654.13 -1135.45 2323.32 305.87 -535.452
-620.023 -1131.16 2314.54 339.977 -531.158
-589.637 -1133.56 2319.44 370.363 -533.555
-553.75 -1125.05 2302.04 406.25 -525.051
-524.441 -1129.69 2311.53 435.559 -529.689
-493.753 -1131.76 2315.77 466.247 -531.76
-460.968 -1128.98 2310.08 499.032 -528.98
-428.023 -1125.37 2302.7 531.977 -525.372
-396.203 -1124.38 2300.67 563.797 -524.382
-365.611 -1127.01 2306.04 594.389 -527.006
-333.629 -1125.44 2302.83 626.371 -525.437
-302.744 -1127.63 2307.31 657.256 -527.628
-271.115 -1127.23 2306.51 688.885 -527.234
-239.113 -1124.98 2301.9 720.887 -524.984
-208.187 -1127.88 2307.83 751.813 -527.879
-176.519 -1127.07 2306.18 783.481 -527.072
-145.282 -1129.26 2310.65 814.718 -529.261
-113.603 -1128.28 2308.65 846.397 -528.28
-82.1387 -1129.5 2311.14 877.861 -529.497
-50.5395 -1129.22 2310.57 909.461 -529.217
-18.9848 -1130.66 2313.52 941.015 -530.659
12.6375 -1130.94 2314.1 972.638 -530.943
44.2143 -1129.66 2311.46 1004.21 -529.656
76.0013 -1132.57 2317.44 1036 -532.575
107.168 -1127.25 2306.54 1067.17 -527.251
139.349 -1132.59 2317.47 1099.35 -532.593
170.631 -1130 2312.16 1130.63 -529.999
202.798 -1133.17 2318.65 1162.8 -533.166
234.371 -1132.6 2317.49 1194.37 -532.602
266.99 -1136.63 2325.73 1226.99 -536.628
297.626 -1132.25 2316.78 1257.63 -532.254
329.577 -1133.24 2318.8 1289.58 -533.241
360.67 -1131.36 2314.96 1320.67 -531.364
392.889 -1133.04 2318.38 1352.89 -533.037
423.753 -1130.84 2313.89 1383.75 -530.843
456.04 -1132.49 2317.26 1416.04 -532.489
488.675 -1134.73 2321.84 1448.67 -534.729
518.333 -1130.21 2312.59 1478.33 -530.206
551.366 -1133.14 2318.59 1511.37 -533.137
582.38 -1131.83 2315.9 1542.38 -531.825
612.666 -1129.31 2310.75 1572.67 -529.307
644.205 -1129.23 2310.6 1604.2 -529.233
676.01 -1129.61 2311.37 1636.01 -529.611
709.134 -1132.06 2316.38 1669.13 -532.06
737.694 -1127.33 2306.69 1697.69 -527.325
773.216 -1133.18 2318.68 1733.22 -533.181
802.886 -1130.34 2312.86 1762.89 -530.338
835.028 -1131.06 2314.33 1795.03 -531.058
861.794 -1124.71 2301.34 1821.79 -524.711
893.773 -1125.37 2302.7 1853.77 -525.373
926.785 -1127.25 2306.53 1886.78 -527.246
947.354 -1114.36 2280.17 1907.35 -514.36
984.362 -1121.02 2293.79 1944.36 -521.016
1012.26 -1117.21 2285.99 1972.26 -517.205
1016.85 -1088.67 2227.6 1976.85 -488.671
1071.48 -1113.81 2279.04 2031.48 -513.812
1124.1 -1135.5 2323.42 2084.1 -535.499
1154.24 -1133.91 2320.18 2114.24 -533.915
1175.55 -1123.97 2299.84 2135.55 -523.973
1188.82 -1107.06 2265.23 2148.82 -507.06
1222.1 -1109.17 2269.54 2182.1 -509.166
1260.91 -1116.06 2283.65 2220.91 -516.061
1291.89 -1115.87 2283.25 2251.89 -515.865
1341.72 -1131.57 2315.38 2301.72 -531.57
-1463.47 -1131.28 2327.8 -503.475 -531.276
-1373.57 -1135.86 2337.22 -413.569 -535.855
-1333.2 -1128.72 2322.53 -373.195 -528.717
-1303.76 -1130.72 2326.65 -343.759 -530.718
-1261.16 -1121.12 2306.89 -301.16 -521.117
-1228.3 -1119.9 2304.39 -268.299 -519.902
-1207.22 -1129.65 2324.45 -247.223 -529.651
-1178.02 -1132.12 2329.53 -218.022 -532.118
-1153.09 -1138.93 2343.56 -193.085 -538.935
-1111.55 -1129.28 2323.69 -151.554 -529.282
-1076.63 -1125.97 2316.88 -116.627 -525.968
-1051.5 -1133.02 2331.38 -91.5024 -533.016
-1022.57 -1136.27 2338.08 -62.569 -536.271
-977.684 -1121.44 2307.56 -17.6836 -521.44
-953.013 -1129.58 2324.31 6.987 -529.579
-919.117 -1126.97 2318.93 40.8831 -526.968
-904.382 -1148.5 2363.25 55.6184 -548.503
-879.112 -1157.76 2382.29 80.8884 -557.76
-837.419 -1145.27 2356.59 122.581 -545.269
-800.058 -1137.94 2341.51 159.942 -537.94
-763.743 -1131.55 2328.36 196.257 -531.55
-728.191 -1125.78 2316.49 231.809 -525.783
-699.089 -1129.92 2325 260.911 -529.917
-666.623 -1128.75 2322.6 293.377 -528.749
-638.326 -1134.88 2335.21 321.674 -534.877
-605.155 -1132.53 2330.37 354.845 -532.528
-570.683 -1127.35 2319.71 389.317 -527.347
-539.854 -1129.18 2323.48 420.146 -529.177
-508.809 -1130.76 2326.73 451.191 -530.756
-476.08 -1128.55 2322.19 483.92 -528.553
-443.366 -1126.07 2317.09 516.634 -526.073
-410.801 -1123.62 2312.04 549.199 -523.619
-380.625 -1127.83 2320.72 579.375 -527.835
-348.596 -1126.83 2318.65 611.404 -526.829
-317.446 -1128.75 2322.6 642.554 -528.748
-285.077 -1126.27 2317.5 674.923 -526.274
-253.646 -1127.35 2319.72 706.354 -527.352
-222.13 -1128.31 2321.69 737.87 -528.308
-190.37 -1128.14 2321.34 769.63 -528.136
-158.687 -1128.44 2321.97 801.313 -528.445
-126.859 -1127.62 2320.27 833.141 -527.617
-95.111 -1127.18 2319.37 864.889 -527.181
-63.3611 -1126.28 2317.52 896.639 -526.281
-31.7465 -1128.39 2321.85 928.254 -528.386
-0.01336 -1128.03 2321.13 959.987 -528.033
31.8251 -1132.13 2329.56 991.825 -532.133
63.5285 -1129.73 2324.62 1023.53 -529.731
95.4386 -1131.38 2328.01 1055.44 -531.381
127.188 -1130.78 2326.78 1087.19 -530.78
159.353 -1133.37 2332.11 1119.35 -533.371
191.408 -1134.45 2334.32 1151.41 -534.446
222.618 -1130.92 2327.07 1182.62 -530.924
254.755 -1132.4 2330.11 1214.75 -532.402
286.848 -1133.38 2332.12 1246.85 -533.379
317.429 -1128.78 2322.67 1277.43 -528.784
349.454 -1129.69 2324.53 1309.45 -529.688
381.771 -1131.31 2327.87 1341.77 -531.312
413.636 -1131.45 2328.15 1373.64 -531.446
444.969 -1130.21 2325.61 1404.97 -530.212
477.856 -1132.83 2330.99 1437.86 -532.826
509.059 -1131.37 2327.99 1469.06 -531.371
541.013 -1131.66 2328.58 1501.01 -531.656
572.096 -1130.19 2325.57 1532.1 -530.192
603.188 -1128.9 2322.9 1563.19 -528.895
635.779 -1130.4 2325.99 1595.78 -530.396
667.228 -1129.82 2324.8 1627.23 -529.819
698.024 -1128.24 2321.55 1658.02 -528.238
731.583 -1131.07 2327.37 1691.58 -531.068
760.654 -1127.01 2319.03 1720.65 -527.013
794.902 -1130.64 2326.5 1754.9 -530.645
827.995 -1132.42 2330.15 1788 -532.418
853.932 -1124.63 2314.13 1813.93 -524.634
885.376 -1124.4 2313.65 1845.38 -524.401
918.573 -1126.33 2317.63 1878.57 -526.333
943.443 -1118.27 2301.03 1903.44 -518.267
973.738 -1116.94 2298.31 1933.74 -516.945
1011.52 -1124.03 2312.88 1971.52 -524.026
1030.36 -1110.26 2284.55 1990.36 -510.258
1157.36 -1143.18 2352.3 2117.36 -543.184
1178.72 -1103 2269.61 2138.72 -502.999
1224.12 -1116.11 2296.6 2184.12 -516.112
1250.71 -1111.85 2287.83 2210.71 -511.854
1292.96 -1121.37 2307.42 2252.96 -521.372
1329.06 -1125.24 2315.37 2289.06 -525.239
1371.66 -1134.3 2334.02 2331.66 -534.302
-1329.06 -1108.33 2293.48 -369.057 -508.33
-1335.69 -1140.77 2360.61 -375.694 -540.769
-1279.74 -1120.03 2317.7 -319.737 -520.032
-1246.82 -1118.92 2315.39 -286.82 -518.919
-1220.94 -1124.22 2326.37 -260.937 -524.224
-1193.28 -1128.14 2334.47 -233.28 -528.136
-1175.12 -1141.49 2362.1 -215.12 -541.488
-1127.64 -1126.3 2330.68 -167.635 -526.304
-1095.2 -1125.7 2329.43 -135.195 -525.702
-1063.64 -1126 2330.05 -103.643 -526.003
-1036.13 -1130.73 2339.84 -76.1322 -530.733
-1003.08 -1129.53 2337.34 -43.0811 -529.526
-973.227 -1131.96 2342.37 -13.2267 -531.957
-941.671 -1132.51 2343.51 18.3287 -532.508
-914.692 -1138.8 2356.52 45.3081 -538.795
-887.957 -1145.86 2371.14 72.0429 -545.857
-853.49 -1143.1 2365.43 106.51 -543.097
-830.832 -1156.56 2393.28 129.168 -556.558
-785.659 -1138.5 2355.91 174.341 -538.497
-746.799 -1128.43 2335.08 213.201 -528.433
-713.049 -1125.53 2329.08 246.951 -525.534
-684.302 -1130.63 2339.63 275.698 -530.632
-653.807 -1133.2 2344.94 306.193 -533.198
-620.014 -1130.02 2338.36 339.986 -530.02
-588.03 -1129.97 2338.27 371.97 -529.972
-555.666 -1129.14 2336.55 404.334 -529.145
-525.872 -1133.76 2346.1 434.128 -533.759
-490.569 -1126.32 2330.71 469.431 -526.323
-460.493 -1130.69 2339.75 499.507 -530.689
-426.426 -1125.18 2328.35 533.574 -525.178
-395.213 -1126.91 2331.93 564.787 -526.912
-362.98 -1125.79 2329.61 597.02 -525.791
-330.749 -1124.46 2326.85 629.251 -524.457
-299.671 -1127.18 2332.49 660.329 -527.18
-266.805 -1123.02 2323.88 693.195 -523.021
-235.858 -1126.91 2331.93 724.142 -526.911
-203.734 -1125.52 2329.04 756.266 -525.515
-171.647 -1123.84 2325.58 788.353 -523.841
-140.475 -1128.76 2335.75 819.525 -528.757
-108.236 -1125.47 2328.95 851.764 -525.468
-76.586 -1128.13 2334.45 883.414 -528.126
-44.6659 -1127.75 2333.67 915.334 -527.752
-12.7752 -1128.1 2334.39 947.225 -528.1
19.1617 -1130.01 2338.35 979.162 -530.012
51.1376 -1130.4 2339.14 1011.14 -530.395
83.1638 -1131.17 2340.74 1043.16 -531.168
114.763 -1127.31 2332.76 1074.76 -527.313
146.993 -1129.99 2338.3 1106.99 -529.987
179.399 -1132.82 2344.16 1139.4 -532.82
210.927 -1130.09 2338.5 1170.93 -530.086
242.618 -1128.83 2335.91 1202.62 -528.833
274.998 -1130.7 2339.78 1235 -530.702
306.407 -1128.61 2335.44 1266.41 -528.606
339.337 -1131.98 2342.42 1299.34 -531.978
370.335 -1128.88 2336.01 1330.34 -528.881
403.525 -1132.43 2343.34 1363.52 -532.426
435.314 -1131.81 2342.07 1395.31 -531.809
466.936 -1130.87 2340.13 1426.94 -530.87
499.814 -1132.9 2344.32 1459.81 -532.898
532.938 -1135.21 2349.1 1492.94 -535.208
563.2 -1131.5 2341.44 1523.2 -531.504
595.422 -1131.92 2342.3 1555.42 -531.923
626.085 -1129.49 2337.27 1586.09 -529.49
655.025 -1124.33 2326.6 1615.03 -524.333
687.719 -1125.8 2329.63 1647.72 -525.801
722.053 -1129.7 2337.71 1682.05 -529.702
750.942 -1125.12 2328.22 1710.94 -525.118
788.928 -1133.98 2346.56 1748.93 -533.98
817.578 -1129.26 2336.78 1777.58 -529.255
846.384 -1125.09 2328.17 1806.38 -525.092
873.482 -1119.04 2315.65 1833.48 -519.043
908.543 -1123.26 2324.38 1868.54 -523.262
940.099 -1123.01 2323.86 1900.1 -523.01
963.219 -1113.02 2303.2 1923.22 -513.025
997.017 -1115.62 2308.57 1957.02 -515.621
1047.15 -1135.78 2350.28 2007.15 -535.779
1146.33 -1138.57 2356.06 2106.33 -538.572
1149.91 -1110.92 2298.84 2109.91 -510.918
1189.32 -1118.43 2314.39 2149.32 -518.433
1202.55 -1101.58 2279.51 2162.55 -501.576
1240.47 -1107.62 2292.02 2200.47 -507.622
1284.04 -1118.29 2314.09 2244.04 -518.287
1308.77 -1112.42 2301.95 2268.77 -512.421
1347.15 -1118.17 2313.84 2307.15 -518.168
-1478.88 -1111.01 2312.1 -518.883 -511.005
-1404.3 -1127.23 2345.87 -444.3 -527.233
-1391.73 -1143.24 2379.19 -431.731 -543.245
-1343.72 -1130.21 2352.06 -383.715 -530.208
-1311.09 -1129.8 2351.2 -351.092 -529.797
-1284.18 -1134.42 2360.81 -324.185 -534.415
-1235.73 -1119.75 2330.29 -275.732 -519.747
-1221.17 -1135.83 2363.75 -261.173 -535.828
-1180.87 -1128.19 2347.85 -220.868 -528.186
-1144.11 -1123.6 2338.31 -184.113 -523.603
-1121.5 -1133.04 2357.96 -161.498 -533.043
-1085.11 -1128.71 2348.95 -125.11 -528.714
-1057.55 -1133.59 2359.09 -97.5515 -533.585
-1022.96 -1130.98 2353.67 -62.9566 -530.984
-986.874 -1126.51 2344.37 -26.8736 -526.515
-955.396 -1127.18 2345.76 4.60376 -527.18
-916.682 -1119.06 2328.85 43.3185 -519.056
-913.936 -1155.84 2405.39 46.0641 -555.837
-875.37 -1148.37 2389.86 84.6301 -548.371
-818.558 -1160.44 2414.97 141.442 -560.439
-761.63 -1125.1 2341.43 198.37 -525.101
-731.201 -1127.52 2346.47 228.799 -527.524
-700.529 -1129.78 2351.16 259.471 -529.778
-666.747 -1126.99 2345.37 293.253 -526.993
-635.171 -1127.84 2347.14 324.829 -527.842
-602.803 -1127.3 2346.01 357.197 -527.301
-572.631 -1131.04 2353.78 387.369 -531.036
-538.24 -1126.39 2344.11 421.76 -526.388
-506.039 -1126.02 2343.35 453.961 -526.023
-474.765 -1127.81 2347.07 485.235 -527.811
-441.503 -1124.8 2340.8 518.497 -524.796
-409.036 -1123.49 2338.08 550.964 -523.489
-379.104 -1129.52 2350.62 580.896 -529.518
-345.624 -1125.11 2341.45 614.376 -525.112
-313.771 -1125.64 2342.55 646.229 -525.641
-281.287 -1123.77 2338.67 678.713 -523.772
-249.417 -1124.19 2339.54 710.583 -524.191
-217.74 -1125.73 2342.74 742.26 -525.73
-185.825 -1126.36 2344.05 774.175 -526.359
-153.746 -1126.05 2343.4 806.254 -526.047
-121.727 -1126.13 2343.57 838.273 -526.129
-89.6749 -1125.85 2342.98 870.325 -525.848
-57.7347 -1127.44 2346.3 902.265 -527.443
-25.6432 -1126.38 2344.1 934.357 -526.382
6.40395 -1128.15 2347.77 966.404 -528.146
38.5532 -1129.96 2351.54 998.553 -529.96
70.3507 -1124.5 2340.19 1030.35 -524.503
102.818 -1129.81 2351.24 1062.82 -529.812
135.258 -1132.38 2356.57 1095.26 -532.375
167.456 -1132.31 2356.43 1127.46 -532.306
198.741 -1127.09 2345.56 1158.74 -527.086
231.608 -1131.04 2353.79 1191.61 -531.041
263.927 -1131.68 2355.13 1223.93 -531.683
296.243 -1132.17 2356.15 1256.24 -532.173
327.315 -1128.28 2348.04 1287.31 -528.276
360.373 -1131.31 2354.36 1320.37 -531.314
393.077 -1132.83 2357.51 1353.08 -532.829
425.009 -1132.06 2355.92 1385.01 -532.062
456.58 -1130.51 2352.68 1416.58 -530.507
488.987 -1131.09 2353.9 1448.99 -531.091
520.901 -1130.53 2352.74 1480.9 -530.534
552.923 -1130.26 2352.17 1512.92 -530.261
586.062 -1132.18 2356.16 1546.06 -532.177
615.481 -1127.08 2345.55 1575.48 -527.081
648.833 -1129.33 2350.24 1608.83 -529.334
679.955 -1127.68 2346.79 1639.95 -527.677
712.279 -1128.07 2347.62 1672.28 -528.074
743.838 -1127.28 2345.96 1703.84 -527.276
774.949 -1125.89 2343.08 1734.95 -525.893
806.498 -1125.23 2341.7 1766.5 -525.232
839.291 -1126.29 2343.91 1799.29 -526.291
871.231 -1126.17 2343.65 1831.23 -526.168
898.19 -1119.84 2330.49 1858.19 -519.845
930.314 -1120.17 2331.17 1890.31 -520.173
956.659 -1113.75 2317.81 1916.66 -513.752
984.452 -1109.37 2308.7 1944.45 -509.374
1042.54 -1138.34 2368.99 2002.54 -538.344
1068.61 -1131.67 2355.1 2028.61 -531.668
1095.11 -1125.82 2342.93 2055.11 -525.821
1149.06 -1147.72 2388.5 2109.06 -547.719
1159.87 -1126.52 2344.38 2119.87 -526.516
1204.6 -1108.71 2307.31 2164.6 -508.706
1225.08 -1098.79 2286.67 2185.08 -498.788
1278.03 -1117.77 2326.17 2238.03 -517.767
1316.01 -1123.05 2337.16 2276.01 -523.051
1342.75 -1118.71 2328.14 2302.75 -518.713
-1388.52 -1098.2 2298.51 -428.518 -498.196
-1377.02 -1140.72 2387.51 -417.019 -540.716
-1322.73 -1122.34 2349.05 -362.73 -522.339
-1304.93 -1134.78 2375.08 -344.931 -534.779
-1269.91 -1132.5 2370.3 -309.911 -532.497
-1228.29 -1124.05 2352.63 -268.289 -524.054
-1194.68 -1122.68 2349.77 -234.679 -522.685
-1163.71 -1123.79 2352.08 -203.708 -523.789
-1136.17 -1128.36 2361.66 -176.168 -528.364
-1101.63 -1126.05 2356.81 -141.625 -526.048
-1070.59 -1127.29 2359.41 -110.594 -527.29
-1040.81 -1129.96 2365 -80.8087 -529.962
-999.666 -1120.08 2344.32 -39.6663 -520.08
-973.291 -1126.64 2358.04 -13.2913 -526.638
-938.802 -1123.93 2352.38 21.1976 -523.931
-922.222 -1143.23 2392.77 37.7783 -543.232
-895.085 -1150.39 2407.75 64.9146 -550.385
-864.428 -1153.39 2414.03 95.5716 -553.388
-835.258 -1158.69 2425.13 124.742 -558.69
-779 -1125.3 2355.25 181 -525.302
-746.876 -1125.4 2355.45 213.124 -525.401
-712.922 -1122.63 2349.65 247.078 -522.626
-684.999 -1129.54 2364.11 275.001 -529.535
-650.74 -1126.16 2357.05 309.26 -526.164
-617.237 -1123.82 2352.14 342.763 -523.818
-587.987 -1129.38 2363.78 372.013 -529.381
-556.403 -1130.85 2366.86 403.597 -530.851
-523.225 -1129.06 2363.11 436.775 -529.059
-489.938 -1126.78 2358.34 470.062 -526.782
-458.441 -1128.59 2362.13 501.559 -528.592
-423.713 -1122.12 2348.58 536.287 -522.117
-393.6 -1127.81 2360.49 566.4 -527.808
-360.259 -1124.44 2353.44 599.741 -524.437
-327.151 -1121.2 2346.67 632.849 -521.204
-295.797 -1123.93 2352.38 664.203 -523.934
-263.883 -1124.94 2354.49 696.117 -524.94
-231.088 -1121.95 2348.24 728.912 -521.953
-199.77 -1126.33 2357.39 760.23 -526.326
-167.453 -1125.66 2356 792.547 -525.663
-135.558 -1128.2 2361.32 824.442 -528.202
-102.958 -1124.63 2353.83 857.042 -524.626
-71.0355 -1128.56 2362.06 888.964 -528.559
-38.6535 -1125.67 2356.01 921.346 -525.667
-6.46606 -1127.85 2360.58 953.534 -527.848
25.8033 -1128.15 2361.22 985.803 -528.155
58.0508 -1127.7 2360.26 1018.05 -527.696
90.3292 -1127.95 2360.79 1050.33 -527.951
122.686 -1128.79 2362.55 1082.69 -528.789
155.078 -1129.54 2364.11 1115.08 -529.539
187.399 -1129.6 2364.25 1147.4 -529.602
219.627 -1129.17 2363.33 1179.63 -529.166
251.968 -1129.35 2363.72 1211.97 -529.351
284.807 -1131.47 2368.15 1244.81 -531.469
316.351 -1128.54 2362.02 1276.35 -528.538
350.145 -1133.43 2372.26 1310.15 -533.432
380.63 -1127.69 2360.25 1340.63 -527.693
412.901 -1127.73 2360.33 1372.9 -527.729
445.43 -1128.41 2361.76 1405.43 -528.412
478.385 -1130.01 2365.1 1438.39 -530.012
508.843 -1125.88 2356.46 1468.84 -525.881
543.127 -1130.2 2365.51 1503.13 -530.205
576.393 -1132.05 2369.36 1536.39 -532.045
606.399 -1127.63 2360.11 1566.4 -527.626
640.177 -1130.31 2365.73 1600.18 -530.312
669.025 -1124.46 2353.48 1629.03 -524.456
701.314 -1124.65 2353.89 1661.31 -524.654
732.419 -1123.02 2350.47 1692.42 -523.019
765.975 -1125.12 2354.87 1725.97 -525.123
795.719 -1121.68 2347.67 1755.72 -521.683
829.758 -1124.33 2353.21 1789.76 -524.328
863.808 -1126.79 2358.37 1823.81 -526.792
891.808 -1121.47 2347.23 1851.81 -521.47
926.802 -1125.01 2354.63 1886.8 -525.007
954.839 -1120.15 2344.46 1914.84 -520.146
987.269 -1120.59 2345.38 1947.27 -520.587
1073.85 -1144.54 2395.51 2033.85 -544.542
1101.35 -1139.12 2384.17 2061.35 -539.119
1138.56 -1143.76 2393.89 2098.56 -543.764
1165.47 -1138.09 2382.01 2125.47 -538.091
1161.07 -1102.99 2308.55 2121.07 -502.989
1207.15 -1116.43 2336.67 2167.15 -516.426
1227.18 -1105.7 2314.22 2187.18 -505.7
1270.6 -1116.05 2335.89 2230.6 -516.054
1309.72 -1122.21 2348.78 2269.72 -522.214
1321.4 -1105.14 2313.05 2281.4 -505.139
1350.41 -1103.01 2308.59 2310.41 -503.012
-1443.58 -1150.84 2422.55 -483.582 -550.836
-1395.41 -1138.55 2396.68 -435.413 -538.549
-1364.07 -1139.73 2399.17 -404.073 -539.732
-1347.83 -1153.9 2428.99 -387.829 -553.897
-1277.67 -1121.45 2360.69 -317.667 -521.452
-1251.97 -1127.36 2373.14 -291.969 -527.365
-1220.21 -1127.99 2374.45 -260.209 -527.988
-1183.89 -1124.31 2366.72 -223.89 -524.315
-1150.72 -1123.51 2365.03 -190.721 -523.512
-1128.26 -1133.42 2385.89 -168.261 -533.42
-1093.75 -1131.45 2381.74 -133.746 -531.448
-1063.87 -1134.3 2387.74 -103.868 -534.298
-1018.67 -1120.48 2358.64 -58.6677 -520.476
-988.23 -1122.52 2362.94 -28.2302 -522.518
-957.327 -1124.15 2366.38 2.67297 -524.152
-927.341 -1127.02 2372.41 32.6589 -527.016
-911.411 -1147.79 2416.13 48.5891 -547.787
-879.294 -1148.97 2418.62 80.7057 -548.969
-813.194 -1148.99 2418.65 146.806 -548.985
-761.091 -1120.93 2359.6 198.909 -520.934
-730.909 -1124.11 2366.29 229.091 -524.112
-700.327 -1126.94 2372.25 259.673 -526.941
-666.251 -1124.15 2366.37 293.749 -524.15
-634.128 -1124.54 2367.19 325.872 -524.539
-601.93 -1124.83 2367.8 358.07 -524.828
-572.52 -1130.66 2380.07 387.48 -530.656
-538.335 -1127.19 2372.77 421.665 -527.189
-505.711 -1126.75 2371.85 454.289 -526.752
-472.607 -1125.12 2368.41 487.393 -525.118
-440.696 -1126.29 2370.88 519.304 -526.289
-407.195 -1123.26 2364.5 552.805 -523.261
-375.286 -1124.48 2367.07 584.714 -524.479
-343.82 -1127.38 2373.18 616.18 -527.382
-310.648 -1124.71 2367.56 649.352 -524.713
-277.707 -1122.35 2362.59 682.293 -522.354
-245.375 -1122.16 2362.19 714.625 -522.162
-213.56 -1124.63 2367.39 746.44 -524.634
-180.957 -1123.1 2364.16 779.043 -523.097
-148.969 -1125.54 2369.3 811.031 -525.542
-116.488 -1124.58 2367.28 843.512 -524.58
-83.9813 -1122.54 2362.98 876.019 -522.54
-51.7514 -1123.96 2365.97 908.249 -523.959
-19.4231 -1124.41 2366.93 940.577 -524.414
12.9542 -1126.86 2372.09 972.954 -526.864
45.461 -1129.03 2376.64 1005.46 -529.027
77.8286 -1127.37 2373.16 1037.83 -527.372
110.397 -1128.74 2376.03 1070.4 -528.739
143.075 -1130.35 2379.43 1103.07 -530.354
175.497 -1129.72 2378.11 1135.5 -529.724
207.878 -1129.07 2376.72 1167.88 -529.067
240.686 -1130.6 2379.94 1200.69 -530.595
273.087 -1130.07 2378.84 1233.09 -530.074
306.054 -1131.75 2382.38 1266.05 -531.754
338.657 -1131.9 2382.68 1298.66 -531.897
370.247 -1128.93 2376.43 1330.25 -528.926
402.86 -1129.3 2377.22 1362.86 -529.301
435.929 -1130.8 2380.38 1395.93 -530.803
467.304 -1128.01 2374.5 1427.3 -528.01
499.419 -1127.25 2372.89 1459.42 -527.246
532.374 -1128.36 2375.23 1492.37 -528.359
565.487 -1129.66 2377.97 1525.49 -529.658
598.213 -1130.08 2378.86 1558.21 -530.084
631.097 -1130.75 2380.27 1591.1 -530.75
661.646 -1127.37 2373.15 1621.65 -527.371
692.736 -1125.19 2368.56 1652.74 -525.188
725.061 -1125.12 2368.41 1685.06 -525.116
755.655 -1122.48 2362.86 1715.66 -522.479
789.458 -1124.63 2367.38 1749.46 -524.63
822.992 -1126.24 2370.78 1782.99 -526.242
854.534 -1125.11 2368.4 1814.53 -525.111
884.082 -1121.53 2360.86 1844.08 -521.531
914.692 -1119.5 2356.59 1874.69 -519.504
944.204 -1116.32 2349.88 1904.2 -516.317
975.909 -1115.85 2348.89 1935.91 -515.846
1065.62 -1143.21 2406.5 2025.62 -543.211
1100.13 -1144.89 2410.04 2060.13 -544.894
1129.5 -1141.29 2402.46 2089.5 -541.292
1156.84 -1135.89 2391.09 2116.84 -535.891
1158.93 -1106.68 2329.6 2118.93 -506.682
1191.08 -1106.97 2330.21 2151.08 -506.97
1232.01 -1115.2 2347.53 2192.01 -515.198
1258.61 -1110.36 2337.34 2218.61 -510.358
1309.07 -1126.28 2370.87 2269.07 -526.284
1351.62 -1134.81 2388.8 2311.62 -534.806
1369.94 -1123.06 2364.07 2329.94 -523.056
-1462.79 -1123.36 2378.4 -502.785 -523.364
-1449.67 -1138.59 2410.65 -489.669 -538.593
-1371.97 -1128.88 2390.07 -411.966 -528.876
-1333.2 -1123.73 2379.18 -373.198 -523.732
-1314.34 -1135.53 2404.16 -354.337 -535.53
-1263.34 -1119.45 2370.13 -303.337 -519.454
-1236.37 -1124.39 2380.58 -276.371 -524.391
-1200.25 -1121.04 2373.49 -240.25 -521.042
-1168.85 -1122.04 2375.59 -208.848 -522.037
-1147.41 -1132.93 2398.66 -187.412 -532.929
-1106.01 -1124.16 2380.1 -146.005 -524.164
-1075.11 -1125.88 2383.72 -115.111 -525.876
-1042.58 -1125.93 2383.83 -82.5798 -525.927
-1009.77 -1125.67 2383.29 -49.7697 -525.671
-977.704 -1126.26 2384.53 -17.7043 -526.255
-946.449 -1127.85 2387.89 13.5507 -527.846
-919.656 -1135.06 2403.16 40.3438 -535.057
-897.264 -1148.44 2431.49 62.7356 -548.435
-864.19 -1148.64 2431.93 95.8104 -548.644
-832.383 -1150.62 2436.11 127.617 -550.621
-784.224 -1129.22 2390.8 175.776 -529.219
-749.772 -1126.55 2385.15 210.228 -526.55
-715.581 -1124.05 2379.85 244.419 -524.047
-683.889 -1125.42 2382.75 276.111 -525.419
-651.539 -1125.79 2383.54 308.461 -525.792
-618.796 -1125.49 2382.9 341.204 -525.489
-586.467 -1125.95 2383.87 373.533 -525.947
-554.658 -1127.52 2387.19 405.342 -527.515
-522.109 -1127.68 2387.54 437.891 -527.681
-488.89 -1126.33 2384.67 471.11 -526.326
-456.785 -1127.53 2387.22 503.215 -527.528
-423.077 -1124.65 2381.13 536.923 -524.652
-390.259 -1123.86 2379.46 569.741 -523.862
-357.063 -1121.74 2374.96 602.937 -521.739
-325.156 -1123.65 2379 634.844 -523.648
-292.227 -1122.05 2375.63 667.773 -522.054
-260.561 -1125.52 2382.97 699.439 -525.521
-227.247 -1121.84 2375.17 732.753 -521.837
-195.015 -1123.16 2377.98 764.985 -523.164
-162.71 -1124.51 2380.84 797.29 -524.514
-130.046 -1123.43 2378.55 829.954 -523.433
-97.3878 -1121.71 2374.89 862.612 -521.706
-65.0412 -1123.63 2378.97 894.959 -523.63
-32.4904 -1122.35 2376.26 927.51 -522.352
-0.0137338 -1126.99 2386.07 959.986 -526.986
32.5708 -1126.08 2384.15 992.571 -526.077
65.0035 -1123.45 2378.59 1025 -523.452
97.8206 -1127.01 2386.12 1057.82 -527.007
130.581 -1128.29 2388.84 1090.58 -528.292
163.243 -1128.39 2389.04 1123.24 -528.389
195.43 -1125.71 2383.38 1155.43 -525.714
228.254 -1126.95 2385.99 1188.25 -526.948
261.287 -1128.77 2389.86 1221.29 -528.774
293.426 -1126.76 2385.6 1253.43 -526.763
326.492 -1128.36 2388.98 1286.49 -528.359
358.904 -1127.61 2387.39 1318.9 -527.609
390.56 -1124.81 2381.46 1350.56 -524.809
422.911 -1124.29 2380.36 1382.91 -524.286
457.508 -1129.38 2391.14 1417.51 -529.381
489.62 -1128.07 2388.37 1449.62 -528.071
520.821 -1124.96 2381.78 1480.82 -524.958
554.832 -1127.92 2388.06 1514.83 -527.924
587.277 -1127.55 2387.28 1547.28 -527.555
621.738 -1130.89 2394.34 1581.74 -530.889
652.316 -1127.18 2386.49 1612.32 -527.181
683.612 -1125.01 2381.88 1643.61 -525.008
713.158 -1120.28 2371.88 1673.16 -520.283
747.201 -1122.73 2377.06 1707.2 -522.727
778.449 -1120.94 2373.28 1738.45 -520.943
809.469 -1118.99 2369.13 1769.47 -518.985
848.233 -1127.47 2387.1 1808.23 -527.471
878.467 -1124.41 2380.62 1838.47 -524.411
910.353 -1123.61 2378.92 1870.35 -523.608
938.097 -1117.92 2366.89 1898.1 -517.925
969.208 -1116.5 2363.87 1929.21 -516.5
995.347 -1109.62 2349.31 1955.35 -509.623
1038.74 -1121.81 2375.11 1998.74 -521.809
1086.67 -1138.01 2409.42 2046.67 -538.013
1118.79 -1137.19 2407.67 2078.79 -537.186
1143.71 -1129.3 2390.98 2103.71 -529.305
1153.72 -1107.54 2344.9 2113.72 -507.541
1184.89 -1106.72 2343.17 2144.89 -506.723
1236.01 -1124.09 2379.94 2196.01 -524.088
1256.13 -1113.09 2356.65 2216.13 -513.091
1298.35 -1121.74 2374.97 2258.35 -521.743
1336.49 -1126.53 2385.11 2296.49 -526.533
1354.86 -1114.82 2360.32 2314.86 -514.823
-1470.97 -1113.21 2370.64 -510.966 -513.214
-1435.78 -1136.66 2420.57 -475.784 -536.661
-1347.53 -1118.33 2381.53 -387.53 -518.329
-1335.41 -1135.71 2418.53 -375.414 -535.706
-1288.51 -1123.63 2392.82 -328.514 -523.632
-1260.61 -1127.92 2401.96 -300.608 -527.925
-1226.94 -1127.15 2400.31 -266.937 -527.15
-1194.69 -1127.67 2401.43 -234.686 -527.673
-1150.38 -1116.53 2377.69 -190.383 -516.529
-1123.07 -1121.71 2388.72 -163.073 -521.708
-1100.18 -1131.74 2410.09 -140.179 -531.742
-1056.46 -1120.31 2385.74 -96.4578 -520.308
-1027.48 -1124.28 2394.2 -67.4836 -524.282
-992.025 -1121.19 2387.62 -32.025 -521.189
-964.23 -1126.84 2399.66 -4.23022 -526.842
-927.877 -1122.54 2390.49 32.1235 -522.539
-907.629 -1138.12 2423.67 52.3712 -538.117
-877.763 -1142.36 2432.7 82.2372 -542.358
-851.074 -1151.23 2451.59 108.926 -551.23
-810.111 -1140.73 2429.23 149.889 -540.73
-767.328 -1126.66 2399.27 192.672 -526.661
-733.641 -1125.29 2396.34 226.359 -525.287
-702.196 -1127.38 2400.81 257.804 -527.384
-667.473 -1124.17 2393.96 292.527 -524.166
-636.757 -1127.71 2401.51 323.243 -527.713
-601.18 -1122.57 2390.56 358.82 -522.569
-569.842 -1125.2 2396.16 390.158 -525.202
-537.665 -1126.4 2398.72 422.335 -526.401
-504.631 -1125.84 2397.53 455.369 -525.842
-471.416 -1124.77 2395.25 488.584 -524.773
-437.386 -1121.46 2388.19 522.614 -521.456
-405.124 -1122.5 2390.41 554.876 -522.502
-371.944 -1120.97 2387.14 588.056 -520.965
-339.921 -1122.96 2391.38 620.079 -522.957
-307.615 -1124.34 2394.32 652.385 -524.336
-274.488 -1122.69 2390.8 685.512 -522.685
-241.391 -1120.73 2386.64 718.609 -520.731
-209.07 -1122.33 2390.04 750.93 -522.325
-176.496 -1122.9 2391.27 783.504 -522.903
-144.316 -1126.83 2399.62 815.684 -526.827
-110.936 -1120.92 2387.05 849.064 -520.923
-78.6241 -1125.39 2396.57 881.376 -525.393
-45.7879 -1123.38 2392.29 914.212 -523.383
-13.1059 -1124.57 2394.82 946.894 -524.572
19.6865 -1128.13 2402.39 979.687 -528.127
52.3603 -1124.69 2395.07 1012.36 -524.689
85.2411 -1126.63 2399.21 1045.24 -526.632
118.057 -1126.88 2399.73 1078.06 -526.875
151.018 -1128.1 2402.33 1111.02 -528.099
183.575 -1126.41 2398.73 1143.58 -526.405
216.222 -1125.69 2397.21 1176.22 -525.692
249.489 -1127.97 2402.06 1209.49 -527.971
282.315 -1127.96 2402.03 1242.31 -527.957
315.228 -1128.26 2402.67 1275.23 -528.258
347.672 -1126.98 2399.96 1307.67 -526.983
380.708 -1127.68 2401.44 1340.71 -527.68
413.9 -1128.69 2403.6 1373.9 -528.693
446.24 -1127.4 2400.85 1406.24 -527.402
480.157 -1130 2406.38 1440.16 -530.001
512.66 -1129.15 2404.58 1472.66 -529.153
544.429 -1126.89 2399.75 1504.43 -526.887
577.121 -1126.68 2399.31 1537.12 -526.679
610.42 -1127.62 2401.3 1570.42 -527.616
641.868 -1125.21 2396.19 1601.87 -525.213
673.694 -1123.67 2392.91 1633.69 -523.673
705.148 -1121.68 2388.67 1665.15 -521.684
739.362 -1124.07 2393.75 1699.36 -524.069
768.127 -1118.32 2381.5 1728.13 -518.316
802.606 -1121.01 2387.24 1762.61 -521.014
833.555 -1118.76 2382.45 1793.55 -518.761
868.141 -1121.38 2388.02 1828.14 -521.377
900.598 -1121.15 2387.54 1860.6 -521.152
929.88 -1117.13 2378.97 1889.88 -517.129
963.965 -1118.95 2382.85 1923.97 -518.953
991.872 -1113.72 2371.71 1951.87 -513.72
1073.5 -1131.43 2409.42 2033.5 -531.427
1107.79 -1132.82 2412.38 2067.79 -532.818
1135.39 -1127.48 2401.02 2095.39 -527.484
1161.26 -1120.78 2386.75 2121.26 -520.784
1177.97 -1105.85 2354.95 2137.97 -505.847
1223.92 -1118.42 2381.73 2183.92 -518.422
1243.43 -1106.81 2357.01 2203.43 -506.814
1295.41 -1123.96 2393.52 2255.41 -523.961
1327.32 -1123.29 2392.09 2287.32 -523.289
1358.82 -1122.3 2389.98 2318.82 -522.298
-1436.08 -1146.13 2455.01 -476.085 -546.126
-1348.43 -1128.92 2418.16 -388.43 -528.923
-1313.45 -1127.27 2414.61 -353.449 -527.266
-1277.22 -1124.43 2408.53 -317.224 -524.427
-1258.72 -1137.45 2436.44 -298.722 -537.454
-1199.37 -1113.27 2384.64 -239.373 -513.274
-1174.73 -1120.86 2400.9 -214.734 -520.862
-1148.48 -1127.3 2414.69 -188.482 -527.302
-1113.48 -1125.28 2410.36 -153.479 -525.28
-1083.34 -1128.2 2416.61 -123.338 -528.197
-1048.52 -1126.27 2412.48 -88.5175 -526.272
-1008.2 -1118.12 2395.03 -48.1971 -518.122
-987.431 -1131.84 2424.41 -27.4313 -531.84
-947.381 -1123.64 2406.84 12.6187 -523.638
-920.046 -1130.47 2421.48 39.9536 -530.47
-891.476 -1136.24 2433.83 68.5244 -536.236
-861.306 -1140.33 2442.6 98.6938 -540.332
-827.732 -1140.07 2442.04 132.268 -540.07
-786.24 -1128.42 2417.09 173.76 -528.421
-748.817 -1121.85 2403 211.183 -521.846
-717.028 -1123.5 2406.54 242.972 -523.496
-685.463 -1125.67 2411.2 274.537 -525.674
-654.876 -1129.76 2419.95 305.124 -529.757
-619.279 -1125.17 2410.13 340.721 -525.174
-586.793 -1126.04 2411.99 373.207 -526.043
-554.045 -1126.49 2412.94 405.955 -526.486
-519.816 -1123.78 2407.15 440.184 -523.78
-487.326 -1124.72 2409.17 472.674 -524.725
-453.413 -1122.28 2403.94 506.587 -522.283
-420.768 -1122.84 2405.14 539.232 -522.844
-387.984 -1123.1 2405.68 572.016 -523.095
-354.053 -1119.77 2398.55 605.947 -519.767
-321.732 -1121.37 2401.99 638.268 -521.374
-288.597 -1120.18 2399.44 671.403 -520.183
-255.53 -1118.98 2396.87 704.47 -518.984
-223.443 -1122.36 2404.11 736.557 -522.36
-190.209 -1120.14 2399.35 769.791 -520.138
-157.601 -1121.45 2402.16 802.399 -521.45
-124.675 -1120.6 2400.33 835.325 -520.597
-92.1241 -1123.7 2406.98 867.876 -523.7
-59.045 -1120.24 2399.56 900.955 -520.236
-26.2823 -1121.62 2402.52 933.718 -521.618
6.56561 -1123.73 2407.04 966.566 -523.729
39.4882 -1124.45 2408.58 999.488 -524.448
72.2229 -1121.6 2402.47 1032.22 -521.595
105.408 -1125.33 2410.48 1065.41 -525.334
138.535 -1126.82 2413.66 1098.53 -526.819
171.477 -1126.52 2413.01 1131.48 -526.516
204.183 -1125.02 2409.79 1164.18 -525.015
237.49 -1126.78 2413.57 1197.49 -526.779
270.863 -1128.39 2417.01 1230.86 -528.387
303.564 -1127.15 2414.37 1263.56 -527.153
336.945 -1128.44 2417.12 1296.95 -528.437
368.773 -1124.75 2409.23 1328.77 -524.754
401.409 -1123.94 2407.49 1361.41 -523.939
434.646 -1124.8 2409.34 1394.65 -524.803
466.877 -1123.12 2405.74 1426.88 -523.125
501.649 -1127.38 2414.85 1461.65 -527.376
533.636 -1125.23 2410.26 1493.64 -525.231
565.896 -1123.88 2407.36 1525.9 -523.878
599.446 -1125.09 2409.96 1559.45 -525.095
633.052 -1126.28 2412.51 1593.05 -526.285
664.68 -1124.01 2407.64 1624.68 -524.012
695.883 -1121.27 2401.77 1655.88 -521.268
728.643 -1121.17 2401.55 1688.64 -521.169
759.85 -1118.79 2396.46 1719.85 -518.79
791.306 -1116.96 2392.54 1751.31 -516.959
825.367 -1118.8 2396.49 1785.37 -518.805
862.056 -1123.94 2407.48 1822.06 -523.936
890.629 -1118.5 2395.83 1850.63 -518.498
920.391 -1114.89 2388.1 1880.39 -514.886
958.93 -1121.79 2402.88 1918.93 -521.788
985.933 -1115.19 2388.74 1945.93 -515.186
1014.64 -1110.87 2379.49 1974.64 -510.869
1050.71 -1114.64 2387.56 2010.71 -514.637
1097.42 -1129.12 2418.59 2057.42 -529.121
1124.74 -1123.39 2406.31 2084.74 -523.391
1157.12 -1122.9 2405.27 2117.12 -522.903
1170.75 -1104.74 2366.37 2130.75 -504.742
1202.32 -1104.03 2364.85 2162.32 -504.032
1259.11 -1125.91 2411.72 2219.11 -525.913
1284.08 -1118.95 2396.81 2244.08 -518.953
1313.68 -1116.27 2391.05 2273.68 -516.267
1347.44 -1117.17 2392.98 2307.44 -517.165
1379.81 -1116.89 2392.39 2339.81 -516.892
-1419.64 -1115.94 2404.44 -459.644 -515.943
-1368.2 -1127.71 2429.79 -408.199 -527.711
-1326.69 -1120.7 2414.69 -366.693 -520.702
-1294.58 -1121.47 2416.34 -334.575 -521.468
-1263.58 -1123.27 2420.23 -303.58 -523.272
-1224 -1117.34 2407.44 -264 -517.336
-1193.2 -1119.31 2411.69 -233.201 -519.31
-1167.05 -1125.88 2425.85 -207.053 -525.882
-1139.56 -1131.51 2437.97 -179.563 -531.507
-1112.36 -1137.77 2451.46 -152.363 -537.766
-1068.21 -1126.54 2427.27 -108.212 -526.539
-1033.19 -1124.53 2422.93 -73.1881 -524.525
-999.915 -1124.35 2422.54 -39.9148 -524.347
-963.013 -1119.94 2413.04 -3.01263 -519.936
-935.408 -1126.41 2426.99 24.5919 -526.408
-904.753 -1129.55 2433.75 55.2475 -529.547
-874.701 -1133.71 2442.72 85.2988 -533.709
-842.021 -1134.66 2444.76 117.979 -534.659
-803.924 -1128.09 2430.6 156.076 -528.086
-766.985 -1122.64 2418.87 193.015 -522.642
-738.159 -1129.12 2432.82 221.841 -529.118
-702.425 -1125.14 2424.25 257.575 -525.138
-668.968 -1124.59 2423.08 291.032 -524.593
-637.506 -1127.52 2429.38 322.494 -527.52
-599.942 -1119.38 2411.85 360.058 -519.381
-570.852 -1127.03 2428.32 389.148 -527.027
-535.381 -1122.24 2418.01 424.619 -522.242
-504.04 -1126.06 2426.23 455.96 -526.056
-468.93 -1121.39 2416.18 491.07 -521.391
-436.269 -1122.32 2418.18 523.731 -522.321
-402.224 -1119.55 2412.21 557.776 -519.55
-368.927 -1118.55 2410.06 591.073 -518.553
-337.214 -1122.63 2418.85 622.786 -522.634
-303.201 -1119.11 2411.27 656.799 -519.112
-270.596 -1120.56 2414.39 689.404 -520.561
-237.218 -1118.77 2410.52 722.782 -518.768
-204.75 -1121.38 2416.16 755.25 -521.381
-171.536 -1120.13 2413.45 788.464 -520.127
-138.957 -1123.41 2420.52 821.043 -523.407
-105.527 -1119.72 2412.57 854.473 -519.717
-72.5317 -1119.37 2411.81 887.468 -519.366
-39.6679 -1122.16 2417.84 920.332 -522.163
-6.64638 -1126.14 2426.41 953.354 -526.139
26.5522 -1127.69 2429.74 986.552 -527.688
59.472 -1122.26 2418.04 1019.47 -522.257
92.7734 -1125.33 2424.67 1052.77 -525.333
125.617 -1122.7 2418.99 1085.62 -522.699
159.334 -1127.34 2429 1119.33 -527.341
191.549 -1121.59 2416.6 1151.55 -521.587
225.616 -1126.78 2427.78 1185.62 -526.776
258.463 -1125.33 2424.65 1218.46 -525.325
291.872 -1126.37 2426.9 1251.87 -526.368
325.589 -1128.27 2430.99 1285.59 -528.268
358.143 -1126.16 2426.45 1318.14 -526.159
390.872 -1124.91 2423.76 1350.87 -524.911
424.761 -1126.94 2428.12 1384.76 -526.935
456.739 -1123.96 2421.72 1416.74 -523.963
490.477 -1125.43 2424.88 1450.48 -525.432
523.845 -1125.92 2425.93 1483.84 -525.92
556.675 -1125.26 2424.52 1516.68 -525.263
589.43 -1124.54 2422.95 1549.43 -524.535
623.131 -1125.59 2425.23 1583.13 -525.593
655.491 -1124.24 2422.32 1615.49 -524.245
686.364 -1120.6 2414.47 1646.36 -520.599
719.131 -1120.24 2413.69 1679.13 -520.238
753.166 -1121.8 2417.05 1713.17 -521.797
783.471 -1117.9 2408.66 1743.47 -517.903
819.349 -1121.95 2417.39 1779.35 -521.953
849.19 -1117.74 2408.32 1809.19 -517.744
881.016 -1116.36 2405.35 1841.02 -516.364
915.484 -1118.31 2409.54 1875.48 -518.312
948.188 -1118.04 2408.96 1908.19 -518.043
981.325 -1118.29 2409.49 1941.32 -518.286
1009.35 -1112.88 2397.84 1969.35 -512.882
1041.85 -1112.59 2397.21 2001.85 -512.588
1084.87 -1123.21 2420.09 2044.87 -523.206
1116.7 -1121.95 2417.38 2076.7 -521.95
1150.27 -1122.47 2418.5 2110.27 -522.47
1173.27 -1112.93 2397.96 2133.27 -512.934
1198.45 -1105.93 2382.86 2158.45 -505.927
1246.73 -1120.05 2413.28 2206.73 -520.046
1274.57 -1115.54 2403.57 2234.57 -515.542
1309.2 -1117.06 2406.85 2269.2 -517.063
-1423.68 -1128.19 2445.23 -463.678 -528.192
-1390.76 -1128.6 2446.12 -430.765 -528.602
-1346.09 -1119.26 2425.86 -386.093 -519.256
-1318.05 -1123.61 2435.3 -358.046 -523.61
-1285.41 -1124.18 2436.53 -325.413 -524.179
-1249.86 -1122.16 2432.15 -289.859 -522.156
-1215.94 -1121.53 2430.78 -255.936 -521.526
-1182.71 -1121.52 2430.77 -222.707 -521.52
-1151.99 -1123.97 2436.07 -191.992 -523.965
-1119.16 -1124.43 2437.08 -159.16 -524.43
-1085.1 -1123.65 2435.39 -125.102 -523.653
-1054.77 -1126.81 2442.23 -94.7717 -526.81
-1017.79 -1122.83 2433.61 -57.788 -522.832
-984.765 -1123.1 2434.2 -24.7645 -523.103
-952.849 -1124.7 2437.66 7.15143 -524.699
-921.603 -1127.23 2443.15 38.3965 -527.232
-890.494 -1130.13 2449.43 69.5063 -530.127
-856.162 -1129 2446.98 103.838 -529
-819.618 -1124.74 2437.76 140.382 -524.745
-779.409 -1114.89 2416.39 180.591 -514.886
-752.728 -1124.36 2436.93 207.272 -524.362
-719.941 -1125.17 2438.69 240.059 -525.174
-684.696 -1122.03 2431.89 275.304 -522.035
-653.405 -1125.39 2439.15 306.595 -525.388
-618.687 -1122.88 2433.72 341.313 -522.879
-587.42 -1126.71 2442.01 372.58 -526.706
-551.861 -1122.27 2432.39 408.139 -522.266
-518.844 -1122.76 2433.45 441.156 -522.756
-486.193 -1124.16 2436.49 473.807 -524.159
-452.245 -1122.55 2433.01 507.755 -522.552
-418.022 -1119.95 2427.37 541.978 -519.951
-384.112 -1117.81 2422.74 575.888 -517.813
-350.647 -1116.69 2420.3 609.353 -516.688
-317.658 -1117 2420.98 642.342 -517.002
-285.159 -1119.31 2425.99 674.841 -519.314
-251.618 -1117.61 2422.29 708.382 -517.607
-218.572 -1117.91 2422.95 741.428 -517.912
-185.809 -1120.03 2427.54 774.191 -520.031
-152.417 -1118.46 2424.15 807.583 -518.464
-119.414 -1119.67 2426.75 840.586 -519.666
-86.3199 -1120.6 2428.79 873.68 -520.604
-53.054 -1119.1 2425.53 906.946 -519.1
-19.9069 -1119.26 2425.88 940.093 -519.264
13.2818 -1122.12 2432.08 973.282 -522.123
46.4343 -1120.02 2427.52 1006.43 -520.021
79.7552 -1122.04 2431.9 1039.76 -522.042
113.268 -1124.78 2437.84 1073.27 -524.78
146.752 -1126.05 2440.59 1106.75 -526.05
179.588 -1122.8 2433.54 1139.59 -522.8
213.249 -1124.92 2438.13 1173.25 -524.917
246.819 -1126.05 2440.59 1206.82 -526.049
279.485 -1123.28 2434.58 1239.49 -523.276
312.958 -1123.99 2436.13 1272.96 -523.991
346.643 -1125.26 2438.87 1306.64 -525.257
379.585 -1124.1 2436.36 1339.58 -524.101
412.309 -1122.54 2432.98 1372.31 -522.538
445.386 -1122.1 2432.02 1405.39 -522.097
478.129 -1120.94 2429.5 1438.13 -520.935
512.792 -1124.13 2436.43 1472.79 -524.131
545.086 -1122.06 2431.95 1505.09 -522.064
578.091 -1121.61 2430.97 1538.09 -521.611
611.919 -1122.72 2433.37 1571.92 -522.72
644.516 -1121.57 2430.88 1604.52 -521.57
678.437 -1122.73 2433.38 1638.44 -522.725
709.133 -1118.68 2424.62 1669.13 -518.684
743.513 -1120.56 2428.68 1703.51 -520.557
775.192 -1118.37 2423.95 1735.19 -518.371
806.055 -1115.24 2417.15 1766.06 -515.238
838.156 -1114 2414.46 1798.16 -513.996
877.3 -1121.85 2431.49 1837.3 -521.854
909.805 -1120.96 2429.55 1869.81 -520.958
942.109 -1119.89 2427.23 1902.11 -519.887
975.155 -1119.74 2426.91 1935.16 -519.741
1003.22 -1114.07 2414.62 1963.22 -514.071
1034.18 -1111.88 2409.88 1994.18 -511.883
1062.9 -1107.49 2400.35 2022.9 -507.486
1103.31 -1115.18 2417.02 2063.31 -515.176
1134.24 -1113.11 2412.54 2094.24 -513.111
1167.36 -1113.25 2412.84 2127.36 -513.246
1186.46 -1100.38 2384.94 2146.46 -500.376
1226.1 -1106.74 2398.73 2186.1 -506.739
1270.99 -1117.38 2421.8 2230.99 -517.383
1310.13 -1122.56 2433.01 2270.13 -522.555
1334.62 -1115.24 2417.15 2294.62 -515.235
-1512.62 -1128.02 2459.44 -552.622 -528.024
-1451.93 -1107.37 2414.41 -491.931 -507.372
-1438.25 -1122.45 2447.28 -478.249 -522.447
-1364.9 -1117.16 2435.76 -404.898 -517.162
-1348.17 -1131.06 2466.05 -388.169 -531.056
-1305.83 -1123.62 2449.84 -345.828 -523.624
-1279.94 -1130.33 2464.47 -319.943 -530.333
-1235.11 -1120.22 2442.43 -275.112 -520.221
-1202.81 -1121.22 2444.61 -242.806 -521.224
-1172.14 -1123.86 2450.36 -212.143 -523.858
-1144.08 -1129.21 2462.03 -184.077 -529.211
-1104.67 -1123.35 2449.25 -144.667 -523.353
-1074.24 -1126.55 2456.22 -114.24 -526.549
-1035.11 -1120.52 2443.09 -75.1052 -520.524
-1001.49 -1120.27 2442.54 -41.49 -520.272
-974.438 -1127.6 2458.51 -14.4385 -527.598
-941.264 -1128.11 2459.62 18.7358 -528.11
-905.565 -1125.52 2453.98 54.4346 -525.521
-869.798 -1122.65 2447.71 90.2015 -522.645
-836.292 -1122.57 2447.55 123.708 -522.573
-801.975 -1121.36 2444.91 158.025 -521.363
-768.676 -1121.53 2445.28 191.324 -521.532
-735.771 -1122.32 2447 224.229 -522.319
-700.356 -1119.17 2440.13 259.644 -519.168
-669.08 -1122.65 2447.71 290.92 -522.647
-635.091 -1121.7 2445.65 324.909 -521.701
-602.863 -1123.93 2450.52 357.137 -523.933
-569.865 -1124.91 2452.64 390.135 -524.908
-535.982 -1124.15 2450.98 424.018 -524.147
-502.835 -1124.93 2452.69 457.165 -524.931
-467.233 -1119.95 2441.83 492.767 -519.946
-434.263 -1120.98 2444.09 525.737 -520.985
-400.075 -1118.79 2439.31 559.925 -518.791
-367.633 -1121.53 2445.27 592.367 -521.525
-332.94 -1117.25 2435.96 627.06 -517.254
-300.273 -1119.59 2441.04 659.727 -519.588
-266.372 -1117.32 2436.11 693.628 -517.325
-233.196 -1117.89 2437.35 726.804 -517.894
-199.905 -1118.01 2437.61 760.095 -518.012
-166.666 -1118.52 2438.71 793.334 -518.519
-133.466 -1119.62 2441.11 826.534 -519.62
-99.9096 -1117.45 2436.39 860.09 -517.453
-66.7849 -1120.37 2442.75 893.215 -520.37
-33.4589 -1122.36 2447.1 926.541 -522.364
-0.0140625 -1120.57 2443.18 959.986 -520.567
33.454 -1123.15 2448.8 993.454 -523.145
66.8649 -1122.18 2446.7 1026.86 -522.184
100.41 -1123.36 2449.27 1060.41 -523.361
133.9 -1123.49 2449.56 1093.9 -523.492
167.236 -1122.54 2447.47 1127.24 -522.536
200.838 -1123.39 2449.33 1160.84 -523.389
234.643 -1124.97 2452.77 1194.64 -524.967
267.064 -1120.35 2442.7 1227.06 -520.347
300.971 -1122.3 2446.95 1260.97 -522.296
334.912 -1123.97 2450.59 1294.91 -523.967
368.173 -1123.26 2449.05 1328.17 -523.259
401.454 -1122.73 2447.89 1361.45 -522.727
435.774 -1124.96 2452.75 1395.77 -524.958
468.604 -1123.3 2449.14 1428.6 -523.299
501.693 -1122.44 2447.26 1461.69 -522.44
535.36 -1122.9 2448.27 1495.36 -522.902
569.236 -1123.72 2450.06 1529.24 -523.721
602.148 -1122.65 2447.72 1562.15 -522.651
636.24 -1123.78 2450.19 1596.24 -523.781
668.546 -1121.8 2445.86 1628.55 -521.798
702.571 -1122.75 2447.95 1662.57 -522.753
732.373 -1117.18 2435.79 1692.37 -517.177
768.392 -1121.16 2444.47 1728.39 -521.159
801.086 -1120.16 2442.29 1761.09 -520.16
831.786 -1116.56 2434.45 1791.79 -516.563
863.873 -1115.03 2431.11 1823.87 -515.033
901.077 -1119.98 2441.89 1861.08 -519.978
933.12 -1118.38 2438.42 1893.12 -518.383
967.902 -1120.07 2442.09 1927.9 -520.067
998.376 -1116.82 2435.01 1958.38 -516.82
1029.34 -1114.32 2429.55 1989.34 -514.318
1053.15 -1104.46 2408.06 2013.15 -504.461
1094.88 -1113.43 2427.62 2054.88 -513.432
1121.59 -1107.04 2413.69 2081.59 -507.042
1166.81 -1118.77 2439.27 2126.81 -518.773
1184.25 -1103.95 2406.95 2144.25 -503.951
1221.9 -1108.26 2416.35 2181.9 -508.262
1259.62 -1112.41 2425.4 2219.62 -512.413
1290.58 -1110.53 2421.29 2250.58 -510.527
1326.02 -1112.5 2425.58 2286.02 -512.496
-1462.52 -1124.13 2465.64 -502.519 -524.129
-1418.88 -1116.3 2448.48 -458.876 -516.304
-1374.38 -1134.83 2489.11 -414.383 -534.828
-1340.05 -1134.56 2488.52 -380.049 -534.562
-1299.63 -1128.99 2476.3 -339.626 -528.991
-1250.99 -1115.8 2447.36 -290.986 -515.795
-1231.06 -1128.18 2474.53 -271.056 -528.183
-1188.63 -1120.07 2456.74 -228.629 -520.072
