ply
format ascii 1.0
element vertex 1197
property float x
property float y
property float z
property float u
property float v
end_header
-25.169 65.4442 1315.01 934.831 665.444
29.6635 67.5275 1356.87 989.664 667.527
-245.661 68.38 1302.46 714.339 668.38
-187.175 66.5722 1268.03 772.825 666.572
-136.298 67.1205 1278.47 823.703 667.12
-84.8185 67.8729 1292.8 875.182 667.873
-32.2726 68.8564 1311.54 927.727 668.856
22.0061 70.4692 1342.26 982.006 670.469
78.9394 72.2059 1375.34 1038.94 672.206
-260.62 74.171 1342.85 699.38 674.171
-194.335 70.1204 1269.52 765.665 670.12
-142.989 70.4686 1275.82 817.011 670.469
-91.1902 70.8659 1283.01 868.81 670.866
-39.5494 72.6376 1315.09 920.451 672.638
14.554 73.561 1331.81 974.554 673.561
71.0209 75.5403 1367.64 1031.02 675.54
-200.995 73.488 1267.75 759.005 673.488
-149.253 73.6053 1269.77 810.747 673.605
-98.3616 74.4921 1285.07 861.638 674.492
-46.5967 76.0006 1311.09 913.403 676.001
7.23032 76.7468 1323.97 967.23 676.747
63.2481 78.9092 1361.27 1023.25 678.909
-208.015 76.9863 1268.29 751.985 676.986
-156.172 77.065 1269.59 803.828 677.065
-104.782 77.5571 1277.7 855.218 677.557
-53.5954 79.3343 1306.97 906.405 679.334
-0.00760598 80.2125 1321.44 959.992 680.213
55.8537 82.7005 1362.43 1015.85 682.7
-215.448 80.6401 1271.24 744.552 680.64
-163.138 80.5476 1269.78 796.862 680.548
-111.629 80.9495 1276.12 848.371 680.95
-60.4897 82.5646 1301.58 899.51 682.565
-7.18077 83.2337 1312.13 952.819 683.234
48.1982 86.0544 1356.59 1008.2 686.054
-225.405 85.2525 1288.43 734.595 685.253
-170.144 84.0504 1270.26 789.856 684.05
-118.506 84.3666 1275.04 841.494 684.367
-67.6963 86.2384 1303.33 892.304 686.238
-14.3586 86.8481 1312.55 945.641 686.848
40.3717 88.8597 1342.95 1000.37 688.86
94.9494 88.408 1336.12 1054.95 688.408
-234.274 89.4714 1298.55 725.726 689.471
-176.999 87.4785 1269.62 783.001 687.478
-125.168 87.6362 1271.91 834.832 687.636
-73.5208 88.24 1280.68 886.479 688.24
-21.435 90.0196 1306.5 938.565 690.02
32.6819 91.5555 1328.8 992.682 691.555
88.6636 93.1301 1351.65 1048.66 693.13
-244.336 94.1626 1314.49 715.664 694.163
-184.316 91.1348 1272.22 775.684 691.135
-131.418 90.628 1265.14 828.582 690.628
-80.0144 91.1621 1272.6 879.986 691.162
-28.3218 92.7536 1294.82 931.678 692.754
25.4478 95.3007 1330.37 985.448 695.301
81.443 97.0257 1354.45 1041.44 697.026
-191.394 94.6729 1273.03 768.606 694.673
-138.112 93.9347 1263.11 821.888 693.935
-87.2483 94.9419 1276.65 872.752 694.942
-35.2967 96.0107 1291.02 924.703 696.011
18.0829 98.4371 1323.65 978.083 698.437
73.556 100.072 1345.63 1033.56 700.072
-198.782 98.3649 1275.79 761.218 698.365
-144.838 97.2672 1261.55 815.162 697.267
-93.7357 97.9177 1269.99 866.264 697.918
-42.5028 99.8881 1295.54 917.497 699.888
10.81 101.71 1319.17 970.81 701.71
65.6191 102.84 1333.83 1025.62 702.84
-205.416 101.683 1273.67 754.584 701.683
-151.501 100.56 1259.6 808.499 700.56
-100.144 100.851 1263.24 859.856 700.851
-49.5462 103.348 1294.52 910.454 703.348
3.57374 104.598 1310.18 963.574 704.598
57.9356 105.771 1324.87 1017.94 705.771
113.189 106.649 1335.87 1073.19 706.649
-213.651 105.795 1281.3 746.349 705.795
-158.689 104.201 1262 801.311 704.201
-107.316 104.563 1266.38 852.684 704.563
-56.6062 106.854 1294.13 903.394 706.854
-3.53611 106.59 1290.94 956.464 706.59
50.4092 108.781 1317.46 1010.41 708.781
105.267 109.656 1328.06 1065.27 709.656
-221.977 109.952 1288.97 738.023 709.952
-165.536 107.617 1261.61 794.464 707.617
-113.97 107.77 1263.4 846.03 707.77
-62.0415 107.549 1260.81 897.958 707.549
-10.523 109.387 1282.35 949.477 709.387
42.9374 111.681 1309.25 1002.94 711.681
96.8241 111.919 1312.03 1056.82 711.919
-231.871 114.886 1305 728.129 714.886
-173.174 111.543 1267.03 786.826 711.543
-120.164 110.567 1255.94 839.836 710.567
-68.8623 110.88 1259.5 891.138 710.88
-17.5913 113.264 1286.58 942.409 713.264
35.731 115.102 1307.46 995.731 715.102
89.7575 115.642 1313.59 1049.76 715.642
-241.557 119.718 1318.94 718.443 719.718
-179.926 114.894 1265.8 780.074 714.894
-126.483 113.51 1250.54 833.517 713.51
-76.0429 114.768 1264.41 883.957 714.768
-24.6564 116.931 1288.23 935.344 716.931
28.5173 118.402 1304.44 988.517 718.402
82.6909 119.398 1315.41 1042.69 719.398
-250.82 124.34 1329.82 709.18 724.34
-187.126 118.532 1267.7 772.874 718.532
-133.347 116.952 1250.8 826.653 716.952
-82.9377 118.199 1264.14 877.062 718.199
-31.7448 120.626 1290.09 928.255 720.626
21.1811 120.799 1291.94 981.181 720.799
75.1158 122.368 1308.72 1035.12 722.368
-194.738 122.426 1272.15 765.262 722.426
-140.251 120.427 1251.38 819.749 720.427
-89.1003 120.642 1253.61 870.9 720.642
-38.665 123.728 1285.68 921.335 723.728
13.9795 123.108 1279.24 973.979 723.108
68.0767 126.159 1310.95 1028.08 726.159
123.129 127.508 1324.96 1083.13 727.508
-201.376 125.705 1270.15 758.624 725.705
-147.444 124.145 1254.38 812.556 724.145
-96.289 124.502 1257.99 863.711 724.502
-44.9992 125.309 1266.14 915.001 725.309
7.00689 126.982 1283.05 967.007 726.982
60.6293 129.145 1304.91 1020.63 729.145
116.444 131.76 1331.33 1076.44 731.76
-208.55 129.32 1271.56 751.45 729.32
-154.515 127.75 1256.12 805.485 727.75
-102.87 127.573 1254.38 857.13 727.573
-51.3057 127.243 1251.14 908.694 727.243
-0.00737698 130.347 1281.65 959.993 730.347
53.3199 132.276 1300.62 1013.32 732.276
108.16 134.152 1319.06 1068.16 734.152
-218.041 134.36 1286.54 741.959 734.36
-161.513 131.29 1257.14 798.487 731.29
-109.064 130.209 1246.79 850.936 730.209
-58.3137 131.042 1254.76 901.686 731.042
-7.02177 133.999 1283.07 952.978 733.999
46.1302 135.598 1298.39 1006.13 735.598
100.381 136.983 1311.65 1060.38 736.983
-227.76 139.522 1301.89 732.24 739.522
-168.246 134.614 1256.09 791.754 734.614
-114.94 132.534 1236.68 845.06 732.534
-65.2144 134.556 1255.55 894.786 734.556
-14.0401 137.544 1283.43 945.96 737.544
38.4631 137.119 1279.46 998.463 737.119
92.9939 140.242 1308.6 1052.99 740.242
-239.895 146.138 1329.71 720.105 746.138
-175.295 138.191 1257.4 784.705 738.191
-122.057 136.312 1240.3 837.943 736.312
-71.9661 137.773 1253.59 888.034 737.773
-20.9482 140.327 1276.84 939.052 740.327
31.3917 140.273 1276.34 991.392 740.273
85.5722 143.37 1304.52 1045.57 743.37
141.028 145.399 1322.98 1101.03 745.399
-182.091 141.568 1256.86 777.909 741.568
-129.001 139.88 1241.87 830.999 739.88
-78.2569 140.192 1244.65 881.743 740.192
-27.4784 141.5 1256.26 932.522 741.5
24.3814 143.569 1274.63 984.381 743.569
77.5586 145.284 1289.85 1037.56 745.284
133.485 148.671 1319.92 1093.49 748.671
-189.537 145.444 1260.68 770.464 745.444
-136.383 143.9 1247.3 823.617 743.9
-85.2857 143.973 1247.93 874.714 743.973
-34.0808 143.814 1246.55 925.919 743.814
17.3624 146.624 1270.91 977.362 746.624
70.176 148.111 1283.8 1030.18 748.111
126.265 152.273 1319.87 1086.26 752.273
-196.517 148.957 1261.25 763.483 748.957
-143.163 147.269 1246.96 816.837 747.269
-91.9816 147.182 1246.22 868.018 747.182
-40.9724 147.498 1248.89 919.028 747.498
10.3327 148.918 1260.92 970.333 748.918
62.9602 151.146 1279.78 1022.96 751.146
119.007 155.826 1319.41 1079.01 755.826
-204.32 153.085 1266.88 755.68 753.085
-150.297 150.996 1249.59 809.703 750.996
-98.1974 149.679 1238.69 861.803 749.679
-47.9306 151.324 1252.31 912.069 751.324
3.43188 152.032 1258.17 963.432 752.032
55.5893 153.609 1271.22 1015.59 753.609
111.204 158.591 1312.45 1071.2 758.591
-213.404 158.147 1279.82 746.596 758.147
-156.749 154.039 1246.58 803.251 754.039
-103.842 151.421 1225.39 856.158 751.421
-54.5852 154.206 1247.93 905.415 754.206
-3.42847 154.664 1251.64 956.572 754.664
48.2699 155.89 1261.55 1008.27 755.89
103.316 161.066 1303.44 1063.32 761.066
-223.07 163.603 1295.32 736.93 763.603
-163.711 157.588 1247.7 796.289 757.588
-110.801 155.135 1228.27 849.199 755.135
-61.0976 156.822 1241.63 898.902 756.822
-10.1945 156.908 1242.31 949.805 756.908
41.4445 159.613 1263.73 1001.44 759.613
95.5148 163.473 1294.29 1055.51 763.473
-236.573 171.808 1331.46 723.427 771.808
-170.79 161.242 1249.59 789.21 761.242
-117.967 159.101 1232.99 842.033 759.101
-67.573 159.478 1235.92 892.427 759.479
-16.965 160.105 1240.78 943.035 760.105
34.4341 162.586 1260 994.434 762.586
87.8488 165.896 1285.65 1047.85 765.896
142.439 168.111 1302.82 1102.44 768.111
-178.018 165.026 1252.38 781.982 765.026
-125.075 162.95 1236.62 834.925 762.95
-74.6168 163.486 1240.69 885.383 763.486
-23.8221 164.006 1244.64 936.178 764.006
27.369 164.965 1251.91 987.369 764.965
80.0698 167.838 1273.72 1040.07 767.838
135.587 172.015 1305.42 1095.59 772.015
-184.626 168.232 1250.76 775.374 768.232
-131.898 166.408 1237.2 828.102 766.408
-81.0483 166.157 1235.34 878.952 766.157
-30.6127 167.333 1244.08 929.387 767.333
20.404 167.395 1244.54 980.404 767.395
73.1483 171.417 1274.44 1033.15 771.417
128.961 176.282 1310.61 1088.96 776.282
-192.002 172.133 1254.28 767.998 772.133
-139.087 170.311 1241 820.913 770.311
-87.4922 168.936 1230.98 872.508 768.936
-37.384 170.597 1243.09 922.616 770.597
13.5929 170.704 1243.86 973.593 770.704
65.8843 174.116 1268.73 1025.88 774.116
122.736 181.252 1320.73 1082.74 781.252
-199.599 176.215 1258.94 760.401 776.215
-145.282 173.001 1235.98 814.718 773.001
-93.3022 170.62 1218.97 866.698 770.62
-44.0586 173.518 1239.68 915.941 773.518
6.77417 173.625 1240.44 966.774 773.625
58.6533 176.695 1262.38 1018.65 776.695
114.736 183.614 1311.81 1074.74 783.614
-208.349 181.281 1270.33 751.651 781.281
-151.891 176.208 1234.78 808.109 776.208
-100.159 174.286 1221.32 859.841 774.286
-50.4838 175.682 1231.09 909.516 775.682
-0.00714901 177.245 1242.05 959.993 777.245
51.5601 179.478 1257.69 1011.56 779.478
105.638 183.848 1288.32 1065.64 783.848
159.471 185.019 1296.53 1119.47 785.019
-216.24 185.565 1275.91 743.76 785.565
-158.948 179.931 1237.17 801.052 779.931
-107.155 178.156 1224.97 852.845 778.156
-57.114 178.734 1228.94 902.886 778.734
-6.78378 180.282 1239.59 953.216 780.282
44.6008 182.573 1255.34 1004.6 782.573
98.1286 186.482 1282.22 1058.13 786.482
152.461 188.66 1297.19 1112.46 788.66
-227.109 192.351 1298.17 732.891 792.351
-166.055 183.692 1239.73 793.945 783.692
-114.334 182.274 1230.16 845.666 782.274
-63.9665 182.476 1231.52 896.034 782.476
-13.602 184.234 1243.39 946.398 784.234
37.6025 185.337 1250.83 997.603 785.337
91.4581 190.694 1286.99 1051.46 790.694
145.476 192.346 1298.14 1105.48 792.346
-242.261 202.637 1342.82 717.739 802.637
-172.796 187.042 1239.48 787.204 787.042
-120.837 185.296 1227.9 839.163 785.296
-70.3831 185.011 1226.02 889.617 785.011
-20.3819 187.471 1242.32 939.618 787.471
30.554 187.465 1242.28 990.554 787.465
84.0356 193.323 1281.1 1044.04 793.323
138.194 195.632 1296.4 1098.19 795.632
-180.001 190.885 1242.44 779.999 790.885
-127.803 189.026 1230.34 832.197 789.026
-76.9153 187.946 1223.31 883.085 787.946
-27.0967 190.327 1238.81 932.903 790.327
23.7603 190.842 1242.16 983.76 790.842
76.3851 195.171 1270.34 1036.39 795.171
132.684 201.572 1312 1092.68 801.572
-187.216 194.721 1245.25 772.784 794.721
-134.022 191.664 1225.7 825.978 791.664
-82.6518 189.114 1209.39 877.348 789.114
-33.5328 191.79 1226.51 926.467 791.79
16.9283 193.765 1239.14 976.928 793.765
68.7834 196.765 1258.32 1028.78 796.765
126.238 206.346 1319.6 1086.24 806.346
-194.598 198.71 1248.93 765.402 798.71
-140.67 194.941 1225.24 819.33 794.941
-89.7496 193.468 1215.98 870.25 793.468
-40.2144 195.029 1225.79 919.786 795.029
10.1525 197.119 1238.93 970.152 797.119
61.766 199.757 1255.51 1021.77 799.757
117.324 206.953 1300.74 1077.32 806.953
167.414 203.022 1276.03 1127.41 803.022
-202.826 203.53 1257.62 757.174 803.53
-147.63 198.642 1227.42 812.37 798.642
-96.6624 197.333 1219.33 863.338 797.333
-46.9277 198.43 1226.11 913.072 798.43
3.37221 200.079 1236.29 963.372 800.079
54.7096 202.475 1251.1 1014.71 802.475
109.949 210.006 1297.63 1069.95 810.006
160.231 206.243 1274.38 1120.23 806.243
-211.435 208.678 1268.01 748.565 808.678
-154.531 202.247 1228.93 805.469 802.247
-103.606 201.205 1222.6 856.394 801.205
-53.5725 201.563 1224.77 906.428 801.563
-3.38842 203.577 1237.02 956.612 803.577
47.5467 204.505 1242.65 1007.55 804.505
102.786 213.41 1296.76 1062.79 813.41
154.451 211.35 1284.25 1114.45 811.35
-220.152 213.879 1278.38 739.848 813.879
-161.3 205.671 1229.32 798.7 805.671
-110.139 204.267 1220.93 849.861 804.267
-59.9828 203.94 1218.98 900.017 803.94
-10.1234 206.396 1233.66 949.877 806.396
40.6073 207.156 1238.2 1000.61 807.156
95.0813 215.558 1288.42 1055.08 815.558
147.108 214.392 1281.45 1107.11 814.392
-233.752 223.7 1315.59 726.248 823.7
-168.223 209.284 1230.81 791.777 809.284
-116.928 207.807 1222.12 843.072 807.807
-66.3971 206.496 1214.41 893.603 806.496
-16.737 208.143 1224.1 943.263 808.143
33.7936 210.263 1236.57 993.794 810.263
86.62 215.552 1267.67 1046.62 815.552
141.308 219.77 1292.47 1101.31 819.77
-175.056 212.774 1231.54 784.944 812.774
-123.194 210.44 1218.02 836.806 810.44
-72.4079 208.011 1203.96 887.592 808.011
-23.321 210.514 1218.46 936.679 810.515
27 213.379 1235.04 987 813.379
79.3345 218.041 1262.02 1039.33 818.041
136.318 226.756 1312.46 1096.32 826.756
182.386 217.519 1259 1142.39 817.519
-182.572 217.073 1236.85 777.428 817.073
-129.863 213.785 1218.12 830.137 813.785
-79.6867 213.166 1214.59 880.313 813.166
-30.1347 214.933 1224.66 929.865 814.933
20.2386 216.652 1234.45 980.239 816.652
72.1016 220.47 1256.21 1032.1 820.47
129.882 231.662 1319.97 1089.88 831.662
175.816 221.354 1261.24 1135.82 821.354
-189.758 220.947 1239.62 770.242 820.947
-136.52 217.112 1218.1 823.48 817.112
-86.3803 216.62 1215.34 873.62 816.62
-36.7111 217.578 1220.71 923.289 817.578
13.4482 219.343 1230.62 973.448 819.344
64.8138 222.462 1248.11 1024.81 822.462
122.284 234.536 1315.86 1082.28 834.536
168.748 224.572 1259.95 1128.75 824.572
-197.605 225.557 1246.37 762.395 825.557
-143.182 220.446 1218.12 816.818 820.446
-93.1317 220.196 1216.74 866.868 820.196
-43.3601 220.79 1220.03 916.64 820.79
6.72272 222.78 1231.02 966.723 822.78
57.7298 224.858 1242.5 1017.73 824.858
114.658 237.239 1310.92 1074.66 837.239
162.577 229.026 1265.53 1122.58 829.026
-205.836 230.551 1255.01 754.164 830.552
-149.909 223.876 1218.67 810.091 823.876
-99.6884 223.309 1215.58 860.312 823.309
-49.9324 223.688 1217.65 910.068 823.688
-0.00703983 224.686 1223.08 959.993 824.686
50.7089 227.231 1236.93 1010.71 827.231
106.97 239.654 1304.56 1066.97 839.654
157.017 234.514 1276.58 1117.02 834.514
-214.845 236.345 1267.68 745.155 836.345
-156.749 227.465 1220.05 803.251 827.465
-106.422 226.819 1216.59 853.578 826.819
-55.8951 224.233 1202.72 904.105 824.233
-6.66826 227.171 1218.48 953.332 827.171
43.855 230.131 1234.35 1003.86 830.131
97.8473 238.37 1278.54 1057.85 838.37
150.624 238.933 1281.56 1110.62 838.933
197.329 232.063 1244.72 1157.33 832.063
-223.262 241.418 1276.18 736.738 841.418
-163.376 230.74 1219.74 796.624 830.74
-112.374 228.722 1209.07 847.626 828.722
-62.2651 226.773 1198.77 897.735 826.773
-13.325 230.424 1218.07 946.675 830.424
36.9411 232.461 1228.83 996.941 832.461
89.6269 238.588 1261.22 1049.63 838.588
144.192 243.405 1286.69 1104.19 843.405
190.647 235.618 1245.52 1150.65 835.618
-170.193 234.278 1220.8 789.807 834.278
-119.013 232.085 1209.37 840.987 832.085
-69.5421 232.468 1211.37 890.458 832.468
-19.9508 233.365 1216.04 940.049 833.365
30.24 235.95 1229.51 990.24 835.95
82.6216 241.713 1259.54 1042.62 841.713
140.59 253.101 1318.88 1100.59 853.101
184.348 239.686 1248.98 1144.35 839.686
-177.265 238.151 1223.55 782.735 838.151
-125.596 235.336 1209.09 834.404 835.336
-76.0572 235.447 1209.66 883.943 835.447
-26.5525 236.277 1213.93 933.448 836.277
23.4629 238.746 1226.61 983.463 838.746
75.2464 243.571 1251.4 1035.25 843.571
137.078 263.823 1355.45 1097.08 863.823
177.932 243.663 1251.87 1137.93 843.663
-184.756 242.548 1228.88 775.244 842.548
-132.279 238.773 1209.76 827.721 838.773
-82.79 239.1 1211.41 877.21 839.1
-33.2291 239.886 1215.4 926.771 839.886
16.6891 241.115 1221.62 976.689 841.115
67.9953 245.512 1243.9 1028 845.512
129.329 266.828 1351.9 1089.33 866.828
172.353 248.911 1261.13 1132.35 848.911
-193.196 248.118 1239.93 766.804 848.118
-138.685 241.718 1207.95 821.315 841.718
-89.3075 242.126 1209.99 870.693 842.126
-39.5535 241.256 1205.64 920.447 841.256
9.92762 242.427 1211.49 969.928 842.427
60.8715 247.596 1237.32 1020.87 847.596
120.076 266.391 1331.25 1080.08 866.391
165.625 252.613 1262.4 1125.63 852.613
207.053 240.606 1202.4 1167.05 840.606
-201.126 252.956 1247.08 758.874 852.956
-145.435 245.267 1209.17 814.565 845.267
-95.6743 244.799 1206.86 864.326 844.799
-45.6301 241.826 1192.2 914.37 841.826
3.31556 246.557 1215.53 963.316 846.557
54.076 250.833 1236.61 1014.08 850.833
108.968 260.861 1286.05 1068.97 860.861
159.445 257.226 1268.13 1119.44 857.226
200.893 244.396 1204.87 1160.89 844.396
-209.221 257.94 1254.74 750.779 857.94
-152.096 248.656 1209.58 807.904 848.656
-101.91 247.219 1202.59 858.09 847.219
-52.2635 245.628 1194.85 907.737 845.628
-3.3184 249.042 1211.46 956.682 849.042
47.2136 253.666 1233.95 1007.21 853.666
100.853 261.564 1272.37 1060.85 861.564
153.819 262.927 1279 1113.82 862.927
194.276 247.65 1204.69 1154.28 847.65
-219.177 265.115 1272.72 740.823 865.115
-158.936 252.323 1211.31 801.064 852.323
-108.642 250.87 1204.34 851.358 850.87
-59.1911 250.569 1202.89 900.809 850.569
-9.93879 252.291 1211.15 950.061 852.291
40.2723 255.797 1227.99 1000.27 855.797
93.6601 264.374 1269.16 1053.66 864.374
148.955 270.285 1297.54 1108.96 870.285
187.93 251.265 1206.23 1147.93 851.265
-228.616 271.541 1286.68 731.384 871.541
-165.295 255.227 1209.38 794.705 855.227
-114.99 253.643 1201.87 845.01 853.643
-65.6934 253.572 1201.54 894.307 853.572
-16.5494 255.437 1210.38 943.451 855.438
33.2751 256.961 1217.59 993.275 856.961
86.4179 266.904 1264.71 1046.42 866.904
182.111 255.65 1211.39 1142.11 855.65
-172.331 259.171 1212.37 787.669 859.171
-121.708 257.24 1203.33 838.292 857.24
-72.3471 257.159 1202.95 887.653 857.159
-23.1748 258.84 1210.82 936.825 858.84
26.4158 258.305 1208.31 986.416 858.305
79.1362 269.111 1258.86 1039.14 869.111
178.342 263.173 1231.08 1138.34 863.172
-179.252 262.916 1214.36 780.748 862.916
-127.952 259.85 1200.19 832.048 859.85
-78.7019 259.716 1199.58 881.298 859.716
-29.258 257.432 1189.03 930.742 857.432
19.7876 261.31 1206.94 979.788 861.31
71.5549 269.914 1246.68 1031.55 869.914
129.98 285.998 1320.97 1089.98 885.998
174.183 270.53 1249.53 1134.18 870.53
-186.938 267.735 1221.2 773.062 867.735
-134.727 263.547 1202.1 825.273 863.547
-85.1655 262.704 1198.25 874.834 862.704
-35.6997 260.256 1187.08 924.3 860.256
13.1856 264.534 1206.6 973.186 864.534
64.4307 272.019 1240.74 1024.43 872.019
120.317 283.848 1294.69 1080.32 883.848
168.726 276.195 1259.78 1128.73 876.195
205.663 257.751 1175.66 1165.66 857.751
264.49 194.626 887.733 1224.49 794.626
-196.134 274.601 1237.09 763.866 874.601
-140.781 265.855 1197.69 819.219 865.855
-91.4147 265.105 1194.31 868.585 865.105
-42.3268 264.359 1190.95 917.673 864.359
6.58182 267.526 1205.22 966.582 867.526
56.9072 271.872 1224.8 1016.91 871.872
112.354 285.142 1284.58 1072.35 885.141
161.688 279.378 1258.61 1121.69 879.378
187.634 197.89 891.505 1147.63 797.89
211.944 187.084 842.821 1171.94 787.084
249.552 189.399 853.254 1209.55 789.399
-204.389 280.027 1246.19 755.611 880.027
-147.746 269.893 1201.09 812.254 869.893
-97.9396 268.358 1194.26 862.06 868.358
-49.0914 269.006 1197.14 910.909 869.006
-0.0069474 271.226 1207.02 959.993 871.226
49.6101 271.924 1210.13 1009.61 871.924
104.171 285.472 1270.42 1064.17 885.472
176.154 193.086 859.279 1136.15 793.086
200.449 183.096 814.822 1160.45 783.096
239.277 187.339 833.706 1199.28 787.339
-212.416 285.062 1253.35 747.584 885.062
-154.357 273.256 1201.44 805.643 873.256
-104.414 271.482 1193.64 855.586 871.482
-55.4471 271.353 1193.08 904.553 871.353
92.121 178.267 783.796 1052.12 778.267
137.187 196.815 865.349 1097.19 796.815
168.351 191.895 843.715 1128.35 791.895
197.575 186.818 821.392 1157.57 786.818
238.598 192.752 847.483 1198.6 792.752
-223.269 293.752 1276.22 736.731 893.752
-161.185 276.986 1203.38 798.815 876.986
-111.035 274.981 1194.67 848.965 874.981
-62.0124 274.804 1193.9 897.988 874.804
24.5472 187.949 816.552 984.547 787.949
86.5224 177.711 772.074 1046.52 777.711
125.662 188.964 820.964 1085.66 788.964
160.111 189.9 825.028 1120.11 789.9
195.062 190.999 829.806 1155.06 790.999
230.909 192.52 836.412 1190.91 792.52
267.67 194.311 844.192 1227.67 794.311
-167.538 279.898 1201.76 792.462 879.898
-117.162 277.289 1190.56 842.838 877.289
19.089 180.766 776.13 979.089 780.766
50.4286 179.052 768.768 1010.43 779.052
82.5743 180.417 774.632 1042.57 780.417
117.971 186.153 799.261 1077.97 786.153
155.022 191.44 821.96 1115.02 791.44
189.236 191.959 824.188 1149.24 791.959
223.081 192.005 824.383 1183.08 792.005
261.246 195.266 838.386 1221.25 795.266
-174.539 283.884 1204.73 785.461 883.884
-123.815 280.87 1191.94 836.185 880.87
-74.5651 279.454 1185.93 885.435 879.454
14.3814 177.164 751.841 974.381 777.164
46.2171 181.119 768.623 1006.22 781.119
79.0909 184.286 782.063 1039.09 784.286
113.957 188.928 801.765 1073.96 788.928
148.812 191.477 812.583 1108.81 791.477
184.835 194.322 824.657 1144.83 794.323
221.358 196.731 834.879 1181.36 796.731
256.602 197.511 838.188 1216.6 797.511
-180.937 286.88 1203.49 779.062 886.88
-130.485 284.464 1193.35 829.515 884.464
-80.9401 282.317 1184.35 879.06 882.317
10.2543 178.925 750.606 970.254 778.925
41.6499 181.627 761.942 1001.65 781.627
74.414 185.423 777.866 1034.41 785.423
109.52 191.026 801.373 1069.52 791.026
143.772 192.897 809.22 1103.77 792.897
179.489 195.664 820.827 1139.49 795.664
217.798 199.936 838.75 1177.8 799.936
254.957 202.131 847.958 1214.96 802.131
-188.746 292.071 1211.38 771.254 892.071
-136.866 287.427 1192.11 823.134 887.427
-87.5023 285.841 1185.53 872.498 885.841
6.16405 181.364 752.214 966.164 781.364
37.332 182.962 758.841 997.332 782.962
70.02 187.171 776.297 1030.02 787.171
105.075 193.099 800.885 1065.08 793.099
140.843 197.202 817.901 1100.84 797.202
175.403 198.361 822.71 1135.4 798.361
210.434 199.593 827.816 1170.43 799.593
247.944 202.507 839.906 1207.94 802.507
-199.378 301.444 1236.23 760.622 901.444
-143.251 290.418 1191.02 816.749 890.418
-93.8112 288.551 1183.36 866.189 888.551
2.03408 181.836 745.718 962.034 781.836
33.1052 184.6 757.051 993.105 784.6
65.5146 188.54 773.211 1025.51 788.54
100.629 195.157 800.345 1060.63 795.157
136.697 199.914 819.854 1096.7 799.914
172.32 202.27 829.518 1132.32 802.27
205.495 201.451 826.156 1165.5 801.451
245.957 206.995 848.893 1205.96 806.995
-207.562 306.931 1244.78 752.438 906.931
-149.883 293.91 1191.97 810.117 893.91
-100.334 291.941 1183.99 859.666 891.941
-2.03898 183.543 744.373 957.961 783.543
29.0588 187.264 759.465 989.059 787.264
61.2099 190.412 772.23 1021.21 790.412
96.266 197.37 800.448 1056.27 797.37
132.93 203.248 824.286 1092.93 803.248
167.493 204.182 828.075 1127.49 804.182
203.326 206.088 835.807 1163.33 806.088
238.734 207.076 839.811 1198.73 807.076
-215.787 312.39 1253.03 744.213 912.39
-155.884 296.189 1188.05 804.116 896.189
-106.54 294.441 1181.04 853.46 894.441
-6.14549 186.706 748.897 953.854 786.706
24.8157 188.646 756.681 984.816 788.646
56.6146 191.261 767.168 1016.61 791.261
91.4986 198.707 797.037 1051.5 798.707
129.465 207.167 830.969 1089.46 807.167
163.331 206.908 829.931 1123.33 806.908
199.283 208.924 838.016 1159.28 808.924
234.112 209.343 839.699 1194.11 809.343
-233.299 330.94 1313.04 726.701 930.94
-162.201 299.108 1186.74 797.799 899.108
-113.083 297.897 1181.94 846.917 897.897
-10.2798 189.494 751.839 949.72 789.494
21.0087 193.755 768.744 981.009 793.755
52.6124 194.065 769.974 1012.61 794.065
87.3191 201.296 798.663 1047.32 801.296
124.321 208.431 826.973 1084.32 808.431
161.502 212.743 844.081 1121.5 812.743
196.602 213.276 846.196 1156.6 813.276
231.41 213.38 846.609 1191.41 813.38
-169.448 303.713 1192.09 790.552 903.713
-119.562 301.172 1182.11 840.438 901.172
-14.3211 190.631 748.236 945.679 790.631
16.5424 192.784 756.684 976.542 792.784
48.4894 196.52 771.349 1008.49 796.52
81.9446 201.006 788.956 1041.94 801.006
119.193 209.623 822.779 1079.19 809.623
156.154 214.045 840.136 1116.15 814.045
194.086 217.959 855.498 1154.09 817.959
228.36 217.195 852.501 1188.36 817.195
-175.824 306.725 1191.13 784.176 906.725
-125.57 303.304 1177.85 834.43 903.304
12.4309 195.248 758.22 972.431 795.248
44.7587 200.809 779.818 1004.76 800.809
79.2789 207.474 805.698 1039.28 807.474
115.045 212.519 825.292 1075.05 812.519
151.629 216.438 840.51 1111.63 816.438
187.17 217.693 845.385 1147.17 817.693
220.969 216.846 842.096 1180.97 816.846
256.709 217.875 846.092 1216.71 817.875
-182.971 311.062 1195.28 777.029 911.062
-132.223 307.022 1179.76 827.777 907.022
-83.4971 305.725 1174.77 876.503 905.725
8.28086 197.202 757.767 968.281 797.202
40.2575 201.748 775.235 1000.26 801.748
74.9481 209.883 806.492 1034.95 809.883
110.681 215.062 826.394 1070.68 815.062
148.304 220.625 847.771 1108.3 820.625
183.8 221.512 851.179 1143.8 821.512
216.91 219.699 844.214 1176.91 819.699
255.112 222.834 856.259 1215.11 822.834
-190.383 315.784 1200.81 769.617 915.784
-138.496 309.851 1178.25 821.504 909.851
-89.5774 307.761 1170.31 870.423 907.761
4.13104 198.926 756.447 964.131 798.926
35.881 203.084 772.255 995.881 803.084
69.8723 210.082 798.869 1029.87 810.082
106.94 218.912 832.444 1066.94 818.912
143.511 222.697 846.84 1103.51 822.697
177.827 222.19 844.911 1137.83 822.19
215.751 225.622 857.96 1175.75 825.622
247.663 222.685 846.794 1207.66 822.685
-202.374 327.857 1233.9 757.626 927.857
-144.903 312.998 1177.98 815.097 912.998
-96.1726 311.599 1172.71 863.827 911.599
-0.00438823 202.575 762.398 959.996 802.575
31.8891 206.685 777.863 991.889 806.685
65.7108 212.933 801.379 1025.71 812.933
102.399 221.208 832.522 1062.4 821.208
139.775 226.459 852.286 1099.78 826.459
174.754 226.503 852.451 1134.75 826.503
209.652 226.445 852.232 1169.65 826.445
246.848 228.531 860.083 1206.85 828.531
-211.84 335.539 1249.95 748.16 935.539
-150.851 315.191 1174.15 809.149 915.191
-102.444 314.377 1171.12 857.556 914.377
-4.15425 203.773 759.097 955.846 803.773
27.3626 206.74 770.15 987.363 806.74
61.1451 214.476 798.966 1021.15 814.476
97.1773 221.952 826.817 1057.18 821.952
135.36 229.203 853.828 1095.36 829.203
169.452 227.97 849.234 1129.45 827.97
201.953 225.382 839.594 1161.95 825.382
240.04 228.875 852.605 1200.04 828.875
-220.931 342.456 1262.86 739.068 942.456
-157.873 319.62 1178.65 802.127 919.62
-109.086 318.275 1173.69 850.914 918.275
-8.31105 206.02 759.73 951.689 806.02
23.2806 210.003 774.42 983.281 810.003
56.6239 216.074 796.807 1016.62 816.074
93.4739 226.188 834.105 1053.47 826.188
130.959 232.009 855.568 1090.96 832.009
166.097 232.09 855.869 1126.1 832.09
202.181 233.235 860.091 1162.18 833.235
235.186 231.016 851.906 1195.19 831.016
-164.58 323.36 1180.54 795.42 923.36
-115 320.085 1168.58 845 920.085
-12.4712 208.21 760.144 947.529 808.21
18.9402 210.931 770.078 978.94 810.931
52.6964 220.042 803.341 1012.7 820.042
89.0796 228.894 835.658 1049.08 828.894
126.641 235.015 858.005 1086.64 835.015
160.867 233.63 852.95 1120.87 833.63
198.194 236.44 863.207 1158.19 836.44
233.206 236.054 861.798 1193.21 836.054
-171.688 327.835 1185.05 788.312 927.835
-121.351 323.18 1168.23 838.649 923.18
-16.7717 212.121 766.77 943.228 812.121
14.7659 213.551 771.94 974.766 813.551
47.837 220.086 795.563 1007.84 820.086
83.7342 229.053 827.976 1043.73 829.053
121.563 236.605 855.276 1081.56 836.605
158.756 239.817 866.886 1118.76 839.817
195.748 241.604 873.347 1155.75 841.604
228.797 238.725 862.938 1188.8 838.725
-178.635 331.946 1188.17 781.365 931.946
-127.345 325.372 1164.64 832.655 925.372
-20.6238 210.744 754.342 939.376 810.744
10.5956 216.679 775.585 970.596 816.679
43.5613 222.636 796.908 1003.56 822.636
79.4562 232.042 830.573 1039.46 832.042
115.621 236.356 846.015 1075.62 836.356
152.88 240.397 860.482 1112.88 840.397
191.754 244.989 876.916 1151.75 844.989
224.484 241.519 864.496 1184.48 841.519
-185.364 335.617 1189.67 774.636 935.617
-134.016 329.301 1167.29 825.984 929.301
6.34894 218.571 774.777 966.349 818.571
39.4065 225.972 801.01 999.406 825.972
74.3161 232.437 823.926 1034.32 832.437
112.267 241.401 855.702 1072.27 841.401
149.613 245.105 868.831 1109.61 845.105
185.651 245.654 870.777 1145.65 845.654
221.939 246.302 873.075 1181.94 846.302
-192.816 340.542 1195.55 767.184 940.542
-140.147 331.899 1165.2 819.853 931.899
-91.8364 329.975 1158.45 868.164 929.975
2.12218 221.612 778.016 962.122 821.612
34.7864 226.591 795.496 994.786 826.591
69.2522 232.808 817.322 1029.25 832.808
107.546 243.642 855.357 1067.55 843.642
146.199 249.761 876.84 1106.2 849.761
180.406 247.37 868.445 1140.41 847.37
220.374 252.363 885.974 1180.37 852.363
254.244 249.948 877.496 1214.24 849.948
-204.562 352.795 1226.79 755.438 952.795
-147 336.19 1169.05 813 936.19
-98.133 333.018 1158.02 861.867 933.018
-2.13741 224.398 780.309 957.863 824.398
30.3976 228.465 794.453 990.398 828.465
65.354 237.11 824.513 1025.35 837.11
101.625 243.005 845.011 1061.63 843.005
142.015 253.246 880.624 1102.02 853.246
176.521 250.97 872.709 1136.52 850.97
213.158 251.979 876.22 1173.16 851.979
250.231 253.14 880.255 1210.23 853.14
-216.081 364.262 1254.74 743.919 964.262
-153.019 338.562 1166.21 806.981 938.562
-104.178 335.265 1154.86 855.822 935.265
-6.35559 224.845 774.501 953.644 824.845
25.908 229.341 789.989 985.908 829.341
60.9235 239.667 825.557 1020.92 839.667
96.8669 244.963 843.8 1056.87 844.963
136.237 253.857 874.438 1096.24 853.857
173.429 255.831 881.238 1133.43 855.831
207.253 253.014 871.533 1167.25 853.014
245.533 255.665 880.665 1205.53 855.665
-159.401 341.764 1166.26 800.599 941.764
-110.902 339.678 1159.14 849.098 939.678
-10.568 226.497 772.917 949.432 826.497
21.4718 230.241 785.692 981.472 830.241
56.433 242.02 825.889 1016.43 842.02
92.4993 247.927 846.044 1052.5 847.927
131.659 256.641 875.782 1091.66 856.641
168.517 258.096 880.745 1128.52 858.096
204.985 258.545 882.278 1164.98 858.545
241.379 258.78 883.081 1201.38 858.78
-165.845 345.092 1166.74 794.155 945.092
-116.886 341.815 1155.65 843.114 941.815
-14.7551 228.017 770.911 945.245 828.017
17.134 231.813 783.745 977.134 831.813
51.7524 243.499 823.255 1011.75 843.499
88.085 250.84 848.075 1048.08 850.84
126.138 257.538 870.719 1086.14 857.538
166.314 264.66 894.8 1126.31 864.66
199.942 260.67 881.31 1159.94 860.67
235.125 259.62 877.758 1195.13 859.62
-172.685 349.216 1169.87 787.315 949.216
-123.199 344.959 1155.61 836.801 944.959
-19.0613 231.237 774.639 940.939 831.237
13.0318 237.276 794.87 973.032 837.276
46.9196 244.021 817.467 1006.92 844.021
83.3915 252.985 847.493 1043.39 852.985
121.979 261.205 875.031 1081.98 861.205
159.85 264.505 886.085 1119.85 864.505
197.083 265.721 890.16 1157.08 865.721
230.272 261.956 877.548 1190.27 861.956
-180.128 354.475 1176.71 779.872 954.475
-129.452 347.946 1155.03 830.548 947.946
-23.2653 233.046 773.615 936.735 833.046
8.56997 236.242 784.224 968.57 836.242
41.7411 242.14 803.804 1001.74 842.14
77.8714 252.426 837.95 1037.87 852.426
117.527 264.345 877.514 1077.53 864.345
154.146 265.445 881.166 1114.15 865.445
192.558 268.63 891.739 1152.56 868.63
229.479 269.05 893.135 1189.48 869.05
-188.345 361.111 1187.96 771.655 961.111
-135.687 350.897 1154.36 824.313 950.897
-27.7216 237.102 780.004 932.278 837.102
4.28439 238.478 784.528 964.284 838.478
37.6865 246.559 811.114 997.686 846.559
74.6076 259.294 853.008 1034.61 859.294
112.367 265.883 874.683 1072.37 865.883
151.832 272.344 895.937 1111.83 872.344
188.633 272.439 896.251 1148.63 872.439
221.6 267.87 881.22 1181.6 867.87
-195.122 364.887 1189.68 764.878 964.887
-141.753 353.444 1152.37 818.247 953.444
-0.00446875 238.125 776.387 959.996 838.125
33.0912 247.572 807.186 993.091 847.572
70.4001 263.331 858.567 1030.4 863.331
106.918 266.61 869.258 1066.92 866.61
145.613 272.323 887.884 1105.61 872.323
182.697 273.339 891.197 1142.7 873.339
219.031 273.081 890.357 1179.03 873.081
-204.482 373.355 1206.54 755.518 973.355
-148.36 357.332 1154.76 811.64 957.332
-99.6979 352.68 1139.72 860.302 952.68
-4.28581 242.336 783.137 955.714 842.336
28.7284 250.214 808.593 988.728 850.214
64.5676 261.073 843.686 1024.57 861.073
102.562 270.029 872.63 1062.56 870.029
141.174 275.56 890.503 1101.17 875.56
179.006 277.607 897.118 1139.01 877.607
215.3 276.977 895.083 1175.3 876.977
251.012 275.892 891.575 1211.01 875.892
-155.114 361.517 1158.05 804.886 961.517
-105.865 355.581 1139.04 854.135 955.581
-8.57524 244.709 783.88 951.425 844.709
24.512 254.543 815.383 984.512 854.543
59.1042 259.64 831.71 1019.1 859.64
96.4741 268.745 860.877 1056.47 868.745
135.163 275.664 883.038 1095.16 875.664
174.036 279.954 896.781 1134.04 879.954
212.3 281.939 903.139 1172.3 881.939
243.826 275.715 883.201 1203.83 875.715
-162.848 367.853 1168.12 797.151 967.853
-112.441 359.81 1142.58 847.559 959.81
-12.972 248.99 790.669 947.028 848.99
19.7793 253.25 804.197 979.779 853.25
55.1513 264.765 840.765 1015.15 864.765
93.3244 275.697 875.479 1053.32 875.697
130.36 278.129 883.201 1090.36 878.129
168.727 281.726 894.624 1128.73 881.726
206.622 283.392 899.914 1166.62 883.392
241.88 281.483 893.852 1201.88 881.483
-169.96 372.636 1173.13 790.04 972.636
-118.481 362.302 1140.59 841.519 962.302
-17.2875 251.049 790.349 942.713 851.049
15.3177 254.365 800.789 975.318 854.365
50.5596 267.088 840.841 1010.56 867.088
87.7786 275.704 867.967 1047.78 875.704
125.252 279.918 881.235 1085.25 879.918
154.717 268.354 844.828 1114.72 868.354
201.064 284.946 897.062 1161.06 884.946
237.086 284.037 894.2 1197.09 884.037
-176.825 376.806 1176.13 783.175 976.806
-125.115 366.59 1144.25 834.885 966.59
-21.5861 252.951 789.542 938.414 852.951
11.0125 258.257 806.104 971.013 858.257
45.7794 268.311 837.486 1005.78 868.311
82.7365 277.082 864.862 1042.74 877.082
116.962 274.187 855.828 1076.96 874.187
146.023 263.315 821.89 1106.02 863.315
197.089 288.76 901.314 1157.09 888.76
234.505 289.329 903.089 1194.51 889.329
-183.581 380.697 1178.23 776.419 980.697
-131.556 370.238 1145.86 828.444 970.238
-25.7891 253.993 786.088 934.211 853.993
6.54845 258.205 799.124 966.548 858.205
40.6794 267.174 826.883 1000.68 867.174
77.1051 276.21 854.847 1037.11 876.21
104.934 258.426 799.808 1064.93 858.426
141.365 265.252 820.934 1101.37 865.252
192.428 291.627 902.561 1152.43 891.627
229.661 291.915 903.452 1189.66 891.915
-189.962 383.797 1177.86 770.038 983.797
-138.338 374.775 1150.17 821.662 974.775
-30.2457 257.497 790.247 929.754 857.497
2.16382 258.486 793.282 962.164 858.486
36.1263 269.192 826.138 996.126 869.192
72.9873 280.683 861.404 1032.99 880.683
101.442 262.895 806.815 1061.44 862.895
139.509 272.64 836.721 1099.51 872.64
189.951 297.949 914.393 1149.95 897.949
225.274 295.108 905.674 1185.27 895.108
-198.35 390.856 1189.54 761.65 990.856
-144.447 377.45 1148.74 815.553 977.45
-2.19013 262.716 799.555 957.81 862.716
31.5803 271.196 825.365 991.58 871.196
67.995 281.864 857.832 1027.99 881.864
97.0105 265.043 806.638 1057.01 865.043
132.914 270.809 824.188 1092.91 870.809
183.706 298.424 908.232 1143.71 898.424
221.579 299.281 910.838 1181.58 899.281
-209.314 402.689 1215.44 750.686 1002.69
-150.917 381.069 1150.19 809.083 981.069
-101.941 374.398 1130.05 858.059 974.398
-6.5518 264.522 798.411 953.448 864.522
26.6867 269.598 813.731 986.687 869.598
63.3255 284.299 858.105 1023.33 884.299
92.0462 265.647 801.808 1052.05 865.647
126.923 269.903 814.652 1086.92 869.903
171.846 289.299 873.196 1131.85 889.299
216.094 301.066 908.713 1176.09 901.066
-1131.96 643.401 1926.1 -171.956 1243.4
-1060.13 647.768 1939.17 -100.128 1247.77
-979.066 646.742 1936.1 -19.0664 1246.74
-156.919 383.516 1148.1 803.081 983.516
-108.53 378.922 1134.35 851.47 978.922
-10.905 266.421 797.563 949.095 866.421
22.2725 272.242 814.989 982.272 872.242
57.6173 281.673 843.221 1017.62 881.673
86.9334 265.61 795.136 1046.93 865.61
123.288 273.948 820.097 1083.29 873.948
159.401 278.293 833.103 1119.4 878.293
211.773 304.479 911.494 1171.77 904.479
246.343 301.054 901.24 1206.34 901.054
-1142.35 648.591 1925.88 -182.354 1248.59
-1066.1 650.244 1930.78 -106.099 1250.24
-984.455 648.61 1925.93 -24.4546 1248.61
-164.059 388.698 1154.17 795.941 988.698
-115.022 382.992 1137.23 844.978 982.992
-15.3274 269.696 800.814 944.673 869.696
17.8768 275.391 817.723 977.877 875.391
53.393 286.043 849.353 1013.39 886.043
82.7609 268.349 796.815 1042.76 868.349
117.77 273.785 812.957 1077.77 873.785
158.862 287.845 854.705 1118.86 887.845
208.71 309.821 919.959 1168.71 909.821
241.459 303.571 901.4 1201.46 903.571
-1160.43 658.134 1938.48 -200.426 1258.13
-1071.3 652.259 1921.17 -111.295 1252.26
-990.818 651.138 1917.87 -30.8184 1251.14
-171.135 393.618 1159.37 788.865 993.618
-121.344 386.435 1138.21 838.656 986.435
-19.7561 272.585 802.876 940.244 872.585
13.1785 272.905 803.819 973.178 872.905
48.6213 287.605 847.116 1008.62 887.605
79.5026 274.315 807.971 1039.5 874.315
114.346 278.492 820.274 1074.35 878.492
154.033 289.888 853.839 1114.03 889.888
204.214 313.154 922.369 1164.21 913.154
239.729 310.174 913.59 1199.73 910.174
-1192.12 675.388 1973.41 -232.124 1275.39
-1079 655.807 1916.19 -118.995 1255.81
-997.708 654.024 1910.99 -37.7084 1254.02
-178.69 399.506 1167.31 781.31 999.506
-127.737 390.067 1139.73 832.263 990.067
-24.2553 276.032 806.534 935.745 876.032
8.78966 275.276 804.327 968.79 875.276
43.9879 289.905 847.071 1003.99 889.905
76.9332 283.328 827.853 1036.93 883.328
109.848 280.7 820.173 1069.85 880.7
149.109 291.72 852.374 1109.11 891.72
198.572 314.725 919.592 1158.57 914.725
235.243 313.348 915.568 1195.24 913.348
-1170.01 662.16 1919.43 -210.009 1262.16
-1090.72 661.804 1918.4 -130.722 1261.8
-1002.9 655.808 1901.01 -42.8956 1255.81
-186.063 404.854 1173.57 773.937 1004.85
-133.704 392.408 1137.49 826.296 992.408
-28.472 276.368 801.118 931.528 876.368
4.42062 279.25 809.474 964.421 879.25
38.9844 289.453 839.049 998.984 889.453
75.336 297.142 861.337 1035.34 897.142
105.564 283.477 821.727 1065.56 883.477
143.386 291.885 846.099 1103.39 891.885
193.83 317.706 920.947 1153.83 917.706
230.502 316.212 916.617 1190.5 916.212
-1129.77 638.727 1836.95 -169.773 1238.73
-1097.02 664.507 1911.09 -137.016 1264.51
-1007.09 656.958 1889.38 -47.0867 1256.96
-948.399 670.23 1927.55 11.6014 1270.23
-193.453 410.127 1179.5 766.547 1010.13
-140.155 396.175 1139.38 819.845 996.175
-32.7849 277.992 799.491 927.215 877.992
-0.00463725 280.138 805.663 959.995 880.138
34.6459 293.854 845.109 994.646 893.854
71.4359 302.926 871.199 1031.44 902.926
100.609 284.416 817.967 1060.61 884.416
138.827 294.34 846.507 1098.83 894.34
180.145 305.552 878.751 1140.15 905.552
226.577 320.254 921.034 1186.58 920.254
-1140.86 644.34 1838.64 -180.864 1244.34
-1092.63 660.761 1885.49 -132.63 1260.76
-1010.37 657.538 1876.3 -50.3704 1257.54
-953.074 671.369 1915.76 6.92584 1271.37
-199.548 412.622 1177.43 760.452 1012.62
-146.437 399.432 1139.79 813.563 999.432
-37.6815 284.143 810.807 922.318 884.143
-4.4195 283.007 807.567 955.581 883.007
29.5626 291.596 832.074 989.563 891.596
66.984 306.73 875.261 1026.98 906.73
96.3307 287.229 819.614 1056.33 887.229
133.196 294.436 840.179 1093.2 894.436
170.183 298.894 852.901 1130.18 898.894
220.915 321.858 918.429 1180.92 921.858
-1150.56 649.165 1838.07 -190.559 1249.16
-1108.17 669.074 1894.44 -148.171 1269.07
-1017.68 660.752 1870.88 -57.6788 1260.75
-957.054 672.046 1902.85 2.94635 1272.05
-152.857 403.047 1141.2 807.143 1003.05
-104.606 397.499 1125.49 855.394 997.499
-8.81517 284.595 805.812 951.185 884.595
24.9681 293.334 830.555 984.968 893.334
61.8453 307.365 870.283 1021.85 907.365
91.4996 288.365 816.488 1051.5 888.365
129.282 298.299 844.615 1089.28 898.299
165.797 301.728 854.323 1125.8 901.728
216.403 325.133 920.593 1176.4 925.133
-1142.13 643.774 1808.8 -182.13 1243.77
-1105.8 666.578 1872.88 -145.797 1266.58
-1025.36 664.215 1866.24 -65.3578 1264.21
-961.36 672.98 1890.86 -1.36023 1272.98
-159.067 406.093 1140.99 800.933 1006.09
-110.827 400.821 1126.18 849.173 1000.82
-13.2093 286.555 805.131 946.791 886.555
20.5596 297.514 835.921 980.56 897.514
56.4884 306.492 861.148 1016.49 906.492
87.2732 291.389 818.713 1047.27 891.389
124.484 300.171 843.387 1084.48 900.171
160.543 302.964 851.233 1120.54 902.964
211.316 327.565 920.356 1171.32 927.565
-1148.25 646.598 1802.89 -188.254 1246.6
-1055.12 635.034 1770.65 -95.1191 1235.03
-1037.58 670.623 1869.88 -77.583 1270.62
-968.84 676.154 1885.3 -8.83966 1276.15
-165.891 410.662 1145.04 794.109 1010.66
-117.053 404.138 1126.85 842.947 1004.14
-17.784 291.596 813.05 942.216 891.596
15.8535 297.244 828.799 975.854 897.244
50.6901 302.342 843.013 1010.69 902.342
81.962 290.664 810.452 1041.96 890.664
117.879 297.446 829.361 1077.88 897.446
158.361 310.13 864.729 1118.36 910.13
206.569 330.537 921.627 1166.57 930.537
-1154.89 649.714 1797.88 -194.889 1249.71
-1051.45 631.855 1748.46 -91.4542 1231.85
-1051.81 678.316 1877.02 -91.8076 1278.32
-974.583 678.132 1876.51 -14.5825 1278.13
-172.68 415.066 1148.56 787.32 1015.07
-122.854 406.031 1123.56 837.146 1006.03
-22.2641 294.284 814.339 937.736 894.284
11.2672 298.047 824.751 971.267 898.047
46.1735 305.254 844.695 1006.17 905.254
77.7061 293.54 812.279 1037.71 893.54
113.371 299.78 829.546 1073.37 899.78
151.244 307.633 851.276 1111.24 907.633
201.883 333.637 923.235 1161.88 933.637
239.394 333.16 921.915 1199.39 933.16
-1169.54 657.341 1805.33 -209.544 1257.34
-1067.14 640.312 1758.56 -107.142 1240.31
-1059.64 681.882 1872.73 -99.6375 1281.88
-979.323 679.433 1866 -19.3232 1279.43
-877.182 660.142 1813.02 82.818 1260.14
-874.236 718.844 1974.24 85.7639 1318.84
-181.053 423.097 1162 778.947 1023.1
-128.971 409.022 1123.34 831.029 1009.02
-26.67 296 812.938 933.33 896
6.70225 297.804 817.893 966.702 897.804
41.8619 309.83 850.922 1001.86 909.83
73.9124 298.371 819.45 1033.91 898.371
108.411 300.868 826.306 1068.41 900.868
148.227 313.42 860.78 1108.23 913.42
197.796 337.802 927.743 1157.8 937.802
234.854 336.397 923.883 1194.85 936.397
-1181.4 663.39 1808.37 -221.398 1263.39
-1083.04 648.881 1768.81 -123.035 1248.88
-1054.46 677.104 1845.75 -94.4637 1277.1
-983.346 680.26 1854.35 -23.3464 1280.26
-879.566 659.455 1797.64 80.4338 1259.45
-864.103 707.116 1927.56 95.8974 1307.12
-716.207 645.09 1758.48 243.793 1245.09
-189.064 430.046 1172.28 770.936 1030.05
-134.962 411.635 1122.09 825.038 1011.64
-31.0408 297.518 811.019 928.959 897.518
2.23391 300.439 818.979 962.234 900.439
36.9624 310.079 845.259 996.962 910.079
74.7755 323.744 882.508 1034.78 923.744
107.224 312.844 852.796 1067.22 912.844
147.061 323.562 882.014 1107.06 923.562
191.111 337.488 919.974 1151.11 937.488
229.798 338.913 923.86 1189.8 938.913
-1197.21 671.658 1817.36 -237.211 1271.66
-1086.91 650.248 1759.43 -126.908 1250.25
-1049.4 672.436 1819.47 -89.3951 1272.44
-990.231 683.084 1848.28 -30.2313 1283.08
-879.987 657.342 1778.63 80.0125 1257.34
-867.408 706.494 1911.62 92.5917 1306.49
-718.061 642.95 1739.68 241.939 1242.95
-196.558 435.656 1178.79 763.442 1035.66
-141.251 415.158 1123.33 818.749 1015.16
-35.5241 300.154 812.152 924.476 900.154
-2.23987 302.209 817.712 957.76 902.209
32.441 313.35 847.857 992.441 913.35
69.8921 325.882 881.766 1029.89 925.882
104.678 321.68 870.397 1064.68 921.68
144.804 331.85 897.914 1104.8 931.85
186.662 341.063 922.844 1146.66 941.063
225.007 341.833 924.928 1185.01 941.833
-1205.06 675.459 1814.23 -245.065 1275.46
-1092.06 652.391 1752.27 -132.064 1252.39
-1017.34 650.554 1747.33 -57.3447 1250.55
-997.43 686.138 1842.91 -37.4297 1286.14
-888.499 661.302 1776.2 71.5008 1261.3
-868.79 704.367 1891.87 91.21 1304.37
-720.984 641.84 1723.93 239.016 1241.84
-206.64 446.743 1199.92 753.36 1046.74
-147.308 417.989 1122.69 812.692 1017.99
-39.8139 301.238 809.102 920.186 901.238
-6.7023 304.086 816.751 953.298 904.086
27.9304 317.081 851.655 987.93 917.081
64.6649 326.24 876.256 1024.66 926.24
103.211 334.732 899.062 1063.21 934.732
143.203 342.21 919.149 1103.2 942.21
181.31 343.006 921.286 1141.31 943.006
220.915 345.872 928.984 1180.92 945.872
-1204.76 674.695 1798.97 -244.763 1274.69
-1093.21 652.151 1738.86 -133.212 1252.15
-1014.57 647.462 1726.36 -54.5681 1247.46
-991.438 680.153 1813.52 -31.4384 1280.15
-893.389 662.582 1766.67 66.6106 1262.58
-866.071 698.997 1863.77 93.9286 1299
-726.542 643.13 1714.8 233.458 1243.13
-153.893 422.286 1125.96 806.107 1022.29
-11.1728 306.468 817.148 948.827 906.468
23.4023 321.163 856.332 983.402 921.163
60.3785 331.402 883.63 1020.38 931.401
98.4837 337.833 900.78 1058.48 937.833
138.092 344.507 918.574 1098.09 944.507
176.238 345.454 921.098 1136.24 945.454
215.158 347.316 926.063 1175.16 947.316
-1208.81 676.372 1790.39 -248.806 1276.37
-1096.76 653.357 1729.47 -136.764 1253.36
-1020.15 649.725 1719.85 -60.1495 1249.72
-988.872 676.571 1790.92 -28.8721 1276.57
-899.184 664.556 1759.11 60.8159 1264.56
-865.391 695.358 1840.65 94.6086 1295.36
-728.962 641.695 1698.6 231.038 1241.7
-700.598 681.873 1804.95 259.402 1281.87
-161.198 428.419 1134.05 798.802 1028.42
-114.471 427.561 1131.78 845.529 1027.56
-15.6921 309.729 819.87 944.308 909.729
18.3202 316.581 838.005 978.32 916.581
54.8742 329.769 872.914 1014.87 929.769
93.2471 339.16 897.775 1053.25 939.16
133.326 347.684 920.336 1093.33 947.684
166.787 338.997 897.342 1126.79 938.997
205.72 342.561 906.778 1165.72 942.561
-1219.98 682.038 1792.42 -259.976 1282.04
-1092.12 649.7 1707.43 -132.124 1249.7
-1029.66 654.497 1720.04 -69.6639 1254.5
-997.541 680.701 1788.91 -37.5413 1280.7
-906.493 667.664 1754.65 53.5072 1267.66
-867.993 694.42 1824.96 92.0073 1294.42
-744.383 651.71 1712.72 215.617 1251.71
-701.732 678.364 1782.76 258.268 1278.36
-169.105 435.92 1145.61 790.895 1035.92
-122.864 438.527 1152.47 837.136 1038.53
-20.2339 312.892 822.293 939.766 912.892
13.7653 319.483 839.612 973.765 919.483
50.0827 332.026 872.576 1010.08 932.026
88.9933 344.145 904.424 1048.99 944.145
128.937 351.955 924.951 1088.94 951.955
163.566 345.004 906.684 1123.57 945.004
199.374 342.653 900.504 1159.37 942.653
-1233.34 688.929 1797.62 -273.339 1288.93
-1108.51 658.557 1718.37 -148.512 1258.56
-1040.5 660.106 1722.41 -80.4974 1260.11
-1004.66 683.777 1784.17 -44.6553 1283.78
-915.744 672.21 1753.99 44.2557 1272.21
-865.554 689.518 1799.15 94.4461 1289.52
-747.205 650.695 1697.85 212.795 1250.69
-700.589 672.781 1755.48 259.411 1272.78
-176.959 443.034 1156 783.041 1043.03
-129.284 442.086 1153.53 830.716 1042.09
-24.6153 313.688 818.504 935.385 913.688
9.10894 319.452 833.544 969.109 919.452
44.4755 328.235 856.46 1004.48 928.235
84.3323 347.785 907.473 1044.33 947.785
123.479 353.335 921.953 1083.48 953.335
160.902 352.504 919.786 1120.9 952.504
195.872 347.637 907.086 1155.87 947.637
-1242.54 693.494 1796.71 -282.543 1293.49
-1113.08 660.39 1710.95 -153.078 1260.39
-1041.04 659.196 1707.85 -81.0417 1259.2
-1010.31 685.873 1776.97 -50.313 1285.87
-925.918 677.432 1755.1 34.0825 1277.43
-866.365 687.276 1780.6 93.6351 1287.28
-745.488 645.808 1673.17 214.512 1245.81
-698.066 666.015 1725.52 261.934 1266.02
-184.406 448.94 1163.12 775.594 1048.94
-135.85 446.093 1155.74 824.15 1046.09
-29.3238 318.466 825.085 930.676 918.466
4.56568 322.692 836.035 964.566 922.692
40.1962 333.922 865.131 1000.2 933.922
79.0669 348.922 903.993 1039.07 948.922
118.856 357.108 925.199 1078.86 957.108
156.263 355.907 922.088 1116.26 955.907
185.131 339.513 879.616 1145.13 939.513
233.49 358.383 928.503 1193.49 958.383
-1099.28 651.351 1675.66 -139.284 1251.35
-1050.82 664.142 1708.57 -90.8169 1264.14
-1008.33 682.809 1756.59 -48.3295 1282.81
-934.062 681.172 1752.38 25.938 1281.17
-869.254 686.736 1766.69 90.7455 1286.74
-753.813 649.672 1671.34 206.187 1249.67
-192.867 457.1 1175.93 767.133 1057.1
-142.261 449.544 1156.5 817.739 1049.54
-33.715 319.589 822.173 926.285 919.589
