ply
format ascii 1.0
element vertex 1344
property float x
property float y
property float z
property float u
property float v
end_header
-20.4165 -455.392 829.714 0 0
-48.7683 -463.934 849.507 0 0
9.10163 -454.85 832.875 0 0
-18.1759 -451.537 830.966 0 0
-46.7682 -462.473 855.396 0 0
11.4877 -454.63 840.888 0 0
-16.0203 -450.249 837.017 0 0
-44.4751 -458.261 856.263 0 0
13.842 -451.852 844.288 0 0
-13.8027 -447.956 841.304 0 0
-41.9381 -451.465 852.271 0 0
16.1943 -448.471 846.618 0 0
-11.566 -445.781 845.904 0 0
-39.5852 -446.543 851.768 0 0
18.6606 -447.491 853.577 0 0
-70.3266 -462.65 887.119 0 0
-9.24195 -440.593 844.825 0 0
-37.4649 -444.353 856.523 0 0
21.2366 -447.945 863.447 0 0
-67.1071 -452.443 876.738 0 0
-6.98782 -439.442 851.545 0 0
-35.0363 -438.577 854.393 0 0
23.7215 -445.568 868.012 0 0
-64.5957 -446.856 875.181 0 0
-4.69306 -437.855 857.554 0 0
-32.5735 -432.217 851.067 0 0
27.5444 -465.322 916.253 0 0
-62.032 -440.852 872.768 0 0
-2.35256 -433.823 858.852 0 0
-30.3194 -428.584 853.096 0 0
-59.6322 -435.977 872.561 0 0
-0.00495487 -430.123 860.844 0 0
-57.4227 -432.53 875.238 0 0
2.35832 -427.268 864.59 0 0
-54.821 -426.118 871.908 0 0
4.7414 -424.312 868.213 0 0
-52.5553 -422.297 873.865 0 0
7.14005 -421.066 871.319 0 0
-50.1745 -417.585 874.001 0 0
9.61019 -420.17 879.412 0 0
-82.8463 -436.279 918.381 0 0
-47.5619 -410.875 869.911 0 0
12.2075 -422.052 893.574 0 0
-79.7917 -428.336 912.159 0 0
-45.1707 -405.999 869.654 0 0
15.5189 -441.91 946.575 0 0
-76.2203 -417.446 899.438 0 0
-73.494 -411.031 896.173 0 0
-70.7519 -404.46 892.484 0 0
-68.3719 -399.929 893.262 0 0
-66.0154 -395.556 894.415 0 0
-63.4494 -389.922 892.711 0 0
-98.7728 -412.726 950.87 0 0
-61.099 -385.608 894.025 0 0
-94.512 -400.487 934.442 0 0
-58.8154 -381.76 896.465 0 0
-91.5729 -393.723 930.531 0 0
6.12701 -471.643 1121.94 0 0
-88.9001 -388.072 929.18 0 0
-86.0938 -381.811 926.314 0 0
-83.585 -376.851 926.571 0 0
-81.2644 -372.759 928.996 0 0
-78.5141 -366.694 926.505 0 0
-15.4153 -371.876 939.597 0 0
59.6188 -454.387 1148.07 0 0
-117.042 -391.374 995.739 0 0
-76.0048 -361.74 926.79 0 0
-13.1989 -376.783 965.33 0 0
-112.257 -378.963 977.763 0 0
-42.8079 -357.007 921.114 0 0
-108.542 -370.065 968.464 0 0
-40.4034 -352.961 923.702 0 0
-71.2007 -352.908 930.22 0 0
-9.38075 -433.69 1143.15 0 0
-105.52 -363.479 965.034 0 0
-38.0587 -349.566 928.097 0 0
31.3696 -432.343 1147.87 0 0
-69.0135 -349.624 935.035 0 0
-6.26089 -427.773 1144.04 0 0
-102.458 -356.728 961.061 0 0
-35.8698 -347.867 937.189 0 0
34.4788 -425.717 1146.92 0 0
-66.3364 -343.883 933.33 0 0
-3.13797 -422.089 1145.59 0 0
-99.4848 -350.254 957.725 0 0
-33.6186 -345.939 945.927 0 0
37.5167 -418.364 1143.96 0 0
-64.1337 -340.632 938.429 0 0
-0.00658732 -415.418 1144.46 0 0
-97.1714 -346.103 960.736 0 0
-31.4013 -344.813 957.154 0 0
40.7028 -412.709 1145.63 0 0
-61.7964 -336.743 941.902 0 0
3.11913 -408.822 1143.51 0 0
-94.6415 -341.197 961.713 0 0
-29.2277 -344.803 971.877 0 0
43.931 -407.343 1148.15 0 0
-59.404 -332.614 944.8 0 0
6.26073 -403.594 1146.42 0 0
-92.3624 -337.216 965.368 0 0
-27.42 -350.335 1002.92 0 0
46.958 -400.117 1145.44 0 0
-137.137 -369.943 1067.41 0 0
-57.4127 -330.856 954.63 0 0
9.38835 -397.072 1145.68 0 0
-89.7015 -331.857 965.13 0 0
-26.6333 -372.167 1082.36 0 0
50.3101 -395.594 1150.49 0 0
-130.107 -352.951 1034.7 0 0
-55.0616 -327.173 959.131 0 0
12.5242 -390.94 1146.07 0 0
-87.4421 -328.001 969.328 0 0
-23.8555 -369.047 1090.63 0 0
53.8646 -392.288 1159.31 0 0
-124.901 -340.806 1015.37 0 0
-52.8996 -324.751 967.539 0 0
15.6921 -385.54 1148.65 0 0
-85.0977 -323.864 972.817 0 0
-20.7941 -361.689 1086.44 0 0
-122 -334.911 1014.33 0 0
-50.8924 -323.515 979.813 0 0
18.9381 -381.4 1155.13 0 0
-82.9125 -320.377 978.41 0 0
-17.8735 -356.729 1089.43 0 0
-118.912 -328.495 1011.65 0 0
-48.5793 -320.567 987.233 0 0
22.1959 -376.787 1160.37 0 0
-80.3083 -315.303 979.265 0 0
-15.0108 -353.485 1097.85 0 0
-116.442 -323.785 1014.22 0 0
-46.8485 -321.818 1008.06 0 0
25.5003 -372.38 1166.44 0 0
-166.151 -356.267 1125.6 0 0
-78.0619 -311.668 984.694 0 0
-12.081 -349.54 1104.35 0 0
-113.143 -316.767 1009.52 0 0
-45.5002 -326.402 1040.23 0 0
28.907 -368.789 1175.31 0 0
-161.085 -345.842 1111.87 0 0
-75.9126 -308.489 991.779 0 0
-9.04795 -342.958 1102.59 0 0
-110.569 -311.769 1011.21 0 0
-43.1795 -324.645 1052.97 0 0
32.5579 -367.308 1191.35 0 0
-157.577 -338.755 1108.57 0 0
-74.0339 -306.513 1003.06 0 0
-6.01 -335.585 1098.19 0 0
-108.127 -307.158 1014.24 0 0
-40.5948 -321.211 1060.64 0 0
34.9 -351.583 1160.93 0 0
-150.947 -324.946 1082.75 0 0
-71.8675 -303.459 1011.15 0 0
-3.01634 -330.477 1101.18 0 0
-105.687 -302.562 1017.43 0 0
-37.7957 -316.25 1063.46 0 0
-147.429 -317.822 1078.66 0 0
-69.8394 -301.103 1021.92 0 0
-0.00641287 -328.28 1114.15 0 0
-103.325 -298.211 1021.58 0 0
-35.0005 -311.43 1066.86 0 0
-144.194 -311.308 1076.53 0 0
-68.1103 -300.207 1038.14 0 0
3.02578 -320.783 1109.29 0 0
-100.931 -293.786 1025.63 0 0
-32.2296 -306.982 1071.69 0 0
43.8039 -327.932 1144.83 0 0
-140.701 -304.232 1072.33 0 0
-66.0377 -297.984 1050.31 0 0
6.07329 -315.515 1112.1 0 0
-98.5965 -289.555 1030.53 0 0
-29.3498 -301.633 1073.51 0 0
-137.219 -297.178 1068.05 0 0
-63.1486 -292.158 1050 0 0
9.10833 -309.272 1111.51 0 0
-96.0492 -284.721 1033.43 0 0
-26.5702 -297.496 1079.8 0 0
-134.014 -290.719 1065.77 0 0
-60.41 -287.043 1052.3 0 0
12.1586 -303.495 1112.61 0 0
-93.8979 -281.087 1040.89 0 0
-23.7108 -292.731 1084.01 0 0
-130.883 -284.42 1064 0 0
-57.7509 -282.353 1056.27 0 0
15.1074 -295.604 1105.84 0 0
-91.4084 -276.473 1044.96 0 0
-20.7381 -286.672 1083.51 0 0
-127.656 -277.909 1061.35 0 0
-55.0812 -277.675 1060.46 0 0
18.0336 -288.016 1099.95 0 0
-171.261 -289.888 1118.78 0 0
-88.8914 -271.798 1048.96 0 0
-17.8746 -282.3 1089.5 0 0
-124.853 -272.321 1062.19 0 0
-52.2714 -272.34 1062.26 0 0
20.9419 -280.686 1094.81 0 0
-166.842 -281.476 1109.73 0 0
-86.4307 -267.321 1053.92 0 0
-14.918 -276.741 1091.06 0 0
-121.969 -266.557 1062.36 0 0
-49.5179 -267.344 1065.49 0 0
23.8473 -273.7 1090.83 0 0
-162.904 -273.89 1103.61 0 0
-83.6586 -261.899 1055.29 0 0
-11.9061 -270.105 1088.36 0 0
-118.855 -260.289 1060.48 0 0
-46.7772 -262.483 1069.42 0 0
26.7674 -267.121 1088.32 0 0
-158.866 -266.145 1096.55 0 0
-81.0691 -257.066 1059.15 0 0
-8.93088 -264.148 1088.33 0 0
-115.981 -254.545 1060.71 0 0
-43.8592 -256.667 1069.55 0 0
29.6601 -260.45 1085.32 0 0
-156.273 -260.825 1099.4 0 0
-78.2662 -251.572 1060.4 0 0
-5.94261 -257.618 1085.88 0 0
-113.253 -249.124 1062.32 0 0
-41.1541 -252.158 1075.26 0 0
32.6439 -254.651 1085.89 0 0
-152.492 -253.524 1093.83 0 0
-75.5405 -246.339 1062.83 0 0
-2.97508 -251.737 1086.12 0 0
-110.333 -243.28 1062.16 0 0
-38.164 -245.951 1073.82 0 0
35.5399 -248.21 1083.69 0 0
-148.965 -246.655 1089.9 0 0
-72.7533 -240.919 1064.56 0 0
-0.0062346 -245.134 1083.18 0 0
-107.585 -237.817 1063.69 0 0
-35.2094 -239.949 1073.23 0 0
38.4 -241.644 1080.81 0 0
-146.027 -240.765 1090.21 0 0
-69.9172 -235.347 1065.68 0 0
2.94496 -238.435 1079.66 0 0
-104.511 -231.632 1062 0 0
-32.2775 -234.094 1073.29 0 0
41.2046 -234.881 1076.9 0 0
-142.88 -234.531 1088.94 0 0
-66.9677 -229.396 1065.1 0 0
5.86809 -231.426 1074.52 0 0
-101.722 -226.081 1063.2 0 0
-29.2132 -227.211 1068.51 0 0
44.1953 -229.239 1078.05 0 0
-139.495 -227.91 1085.76 0 0
-64.0608 -223.589 1065.17 0 0
8.78108 -224.934 1071.58 0 0
-189.399 -243.299 1174.36 0 0
-98.7692 -220.164 1062.69 0 0
-26.2279 -220.826 1065.89 0 0
46.9629 -222.496 1073.95 0 0
-136.556 -222.022 1085.99 0 0
-60.9879 -217.192 1062.36 0 0
11.6411 -217.783 1065.25 0 0
-184.248 -234.409 1162.12 0 0
-95.6937 -213.973 1060.8 0 0
-23.2694 -214.584 1063.83 0 0
49.804 -216.215 1071.92 0 0
-133.226 -215.501 1083.05 0 0
-58.1332 -211.563 1063.26 0 0
14.4208 -210.035 1055.59 0 0
-180.962 -227.919 1161.42 0 0
-92.7853 -208.154 1060.7 0 0
-20.3177 -208.32 1061.55 0 0
52.4399 -209.182 1065.94 0 0
-130.179 -209.439 1082.33 0 0
-55.1718 -205.545 1062.2 0 0
17.2294 -203.359 1050.9 0 0
-178.31 -222.22 1164.83 0 0
-89.8892 -202.362 1060.74 0 0
-17.3166 -201.36 1055.48 0 0
55.1417 -202.576 1061.86 0 0
-127.046 -203.243 1080.84 0 0
-52.2136 -199.529 1061.09 0 0
20.0465 -197.068 1048 0 0
-175.011 -215.711 1164.07 0 0
-86.9764 -196.533 1060.58 0 0
-14.3787 -194.873 1051.62 0 0
57.788 -195.902 1057.17 0 0
-124.026 -197.231 1080.28 0 0
-49.1812 -193.21 1058.25 0 0
22.8931 -191.189 1047.18 0 0
-169.426 -206.419 1147.79 0 0
-83.8271 -190.167 1057.42 0 0
-11.424 -187.807 1044.29 0 0
60.8436 -190.643 1060.06 0 0
-120.728 -190.779 1077.19 0 0
-46.0994 -186.658 1053.92 0 0
25.6906 -184.996 1044.54 0 0
-163.926 -197.301 1131.48 0 0
-81.0993 -184.757 1059.54 0 0
-8.53982 -181.467 1040.67 0 0
63.4658 -184.049 1055.48 0 0
-117.545 -184.516 1075.01 0 0
-43.1407 -180.571 1052.03 0 0
28.4747 -178.84 1041.94 0 0
-158.899 -188.817 1117.87 0 0
-78.0487 -178.611 1057.45 0 0
-5.6843 -175.441 1038.68 0 0
66.1915 -177.85 1052.95 0 0
-114.308 -178.174 1072.21 0 0
-39.9553 -173.475 1043.93 0 0
31.3363 -173.218 1042.39 0 0
-153.334 -179.764 1099.87 0 0
-74.7321 -171.85 1051.45 0 0
-2.84806 -169.937 1039.75 0 0
68.8481 -171.542 1049.57 0 0
-110.869 -171.525 1067.32 0 0
-37.0561 -167.561 1042.65 0 0
34.2395 -167.784 1044.03 0 0
-149.501 -172.795 1093.82 0 0
-71.3185 -164.855 1043.56 0 0
-0.00596616 -163.747 1036.54 0 0
71.9913 -166.438 1053.58 0 0
-107.397 -164.839 1061.83 0 0
-34.1505 -161.598 1040.95 0 0
37.0377 -161.833 1042.47 0 0
-146.695 -167.025 1095.2 0 0
-68.4979 -159.224 1044.05 0 0
2.82958 -158.205 1037.36 0 0
74.9892 -160.932 1055.24 0 0
-104.41 -158.907 1060.98 0 0
-31.2128 -155.447 1037.88 0 0
39.9802 -156.498 1044.9 0 0
-142.538 -159.734 1086.33 0 0
-65.7019 -153.652 1044.97 0 0
5.65791 -152.339 1036.04 0 0
77.6966 -154.81 1052.84 0 0
-101.217 -152.664 1057.91 0 0
-28.4018 -149.911 1038.84 0 0
42.7341 -150.426 1042.41 0 0
-138.795 -152.943 1080.31 0 0
-62.8202 -147.879 1044.54 0 0
8.52803 -147.335 1040.7 0 0
80.9444 -149.739 1057.68 0 0
-98.4235 -147.028 1058.97 0 0
-25.624 -144.58 1041.34 0 0
45.6432 -144.917 1043.77 0 0
-135.573 -146.745 1078.17 0 0
-59.9123 -142.044 1043.63 0 0
11.363 -141.525 1039.81 0 0
83.9942 -144.229 1059.68 0 0
-95.1658 -140.701 1054.95 0 0
-22.7468 -138.699 1039.94 0 0
48.7569 -139.959 1049.38 0 0
-131.519 -139.676 1069.17 0 0
-57.0223 -136.249 1042.94 0 0
14.1912 -135.706 1038.78 0 0
87.9053 -140.052 1072.05 0 0
-92.3377 -135.015 1055.58 0 0
-19.9074 -133.036 1040.11 0 0
51.6371 -134.253 1049.62 0 0
-128.925 -134.173 1071.91 0 0
-54.0513 -130.258 1040.63 0 0
17.0736 -130.355 1041.4 0 0
91.8993 -135.763 1084.61 0 0
-89.2845 -129.002 1053.6 0 0
-17.0594 -127.313 1039.81 0 0
54.7775 -129.154 1054.85 0 0
-125.735 -128.048 1069.69 0 0
-51.3625 -124.948 1043.79 0 0
19.9778 -125.022 1044.41 0 0
97.6116 -133.594 1116.02 0 0
-86.1087 -122.82 1049.99 0 0
-14.2373 -121.801 1041.28 0 0
58.172 -124.481 1064.2 0 0
-122.408 -121.799 1066.18 0 0
-48.3375 -118.819 1040.1 0 0
22.9307 -119.825 1048.9 0 0
104.494 -132.346 1158.5 0 0
-83.4222 -117.338 1052.31 0 0
-11.3608 -115.8 1038.51 0 0
61.2892 -119.068 1067.83 0 0
-119.163 -115.65 1063.23 0 0
-45.4549 -113.035 1039.19 0 0
25.8059 -114.127 1049.23 0 0
109.832 -128.554 1181.86 0 0
-80.4249 -111.418 1050.73 0 0
-8.54184 -110.378 1040.92 0 0
64.1315 -113.096 1066.55 0 0
-116.478 -110.046 1065.25 0 0
-42.6913 -107.548 1041.07 0 0
28.5068 -107.759 1043.11 0 0
114.49 -123.635 1196.79 0 0
-77.6885 -105.859 1052.57 0 0
-5.70986 -104.932 1043.35 0 0
67.507 -108.001 1073.87 0 0
-113.69 -104.336 1066.41 0 0
-39.6275 -101.299 1035.37 0 0
31.5411 -102.652 1049.2 0 0
117.292 -116.625 1192.01 0 0
-74.812 -100.105 1052.58 0 0
-2.85544 -99.141 1042.44 0 0
70.2872 -101.905 1071.51 0 0
-110.595 -98.3459 1064.68 0 0
-36.8375 -95.7428 1036.5 0 0
34.5801 -97.3982 1054.42 0 0
-153.01 -100.349 1119.5 0 0
-71.7915 -94.163 1050.48 0 0
-0.00594594 -92.5988 1033.03 0 0
73.91 -96.958 1081.66 0 0
-107.393 -92.2747 1061.79 0 0
-33.9846 -90.0242 1035.9 0 0
37.6857 -92.1803 1060.71 0 0
-147.639 -92.7772 1102.24 0 0
-68.5979 -88.0068 1045.57 0 0
2.83566 -87.5032 1039.59 0 0
76.8483 -91.023 1081.4 0 0
-104.341 -86.3463 1060.28 0 0
-31.0028 -83.9542 1030.9 0 0
40.318 -85.813 1053.73 0 0
-143.987 -86.368 1097.37 0 0
-65.4222 -81.8931 1040.52 0 0
5.6951 -82.0765 1042.85 0 0
80.042 -85.3646 1084.63 0 0
-101.32 -80.4527 1058.99 0 0
-28.1466 -78.2119 1029.5 0 0
42.943 -79.5795 1047.5 0 0
-140.588 -80.1411 1094.27 0 0
-62.1984 -75.7425 1034.21 0 0
8.56304 -76.5308 1044.97 0 0
83.2335 -79.6521 1087.59 0 0
-97.839 -74.2183 1052.68 0 0
-25.4446 -72.9049 1034.05 0 0
46.2418 -74.5551 1057.46 0 0
-137.403 -74.0545 1092.72 0 0
-59.2262 -69.9171 1031.67 0 0
11.445 -70.977 1047.31 0 0
86.4996 -73.9571 1091.29 0 0
-94.3366 -68.0129 1045.76 0 0
-22.6043 -67.2109 1033.42 0 0
49.0784 -68.6987 1056.3 0 0
-134.076 -67.9086 1089.96 0 0
-56.6193 -64.52 1035.57 0 0
14.2697 -65.0778 1044.53 0 0
-177.675 -67.9291 1140.32 0 0
-91.35 -62.2087 1044.29 0 0
-19.7221 -61.3825 1030.42 0 0
52.3629 -63.405 1064.37 0 0
-129.983 -61.4235 1080.7 0 0
-53.8853 -58.9644 1037.43 0 0
17.0251 -59.0218 1038.44 0 0
-179.031 -63.2763 1169.54 0 0
-88.1685 -56.2909 1040.43 0 0
-16.9914 -56.0328 1035.66 0 0
55.3576 -57.675 1066.02 0 0
-125.139 -54.6896 1064.62 0 0
-50.8326 -53.0665 1033.03 0 0
19.8399 -53.2811 1037.2 0 0
-160.387 -51.8852 1066.8 0 0
-85.0513 -50.441 1037.1 0 0
-14.1838 -50.4538 1037.37 0 0
58.2241 -51.8051 1065.15 0 0
-121.995 -48.7758 1062.58 0 0
-47.7729 -47.186 1027.95 0 0
22.818 -47.9111 1043.74 0 0
99.3444 -50.5581 1101.41 0 0
-81.7104 -44.4957 1030.72 0 0
-11.3335 -44.7244 1036.02 0 0
60.9233 -45.8224 1061.45 0 0
-117.424 -42.3655 1047.71 0 0
-45.0961 -41.6892 1030.99 0 0
25.783 -42.3891 1048.3 0 0
102.618 -44.6511 1104.24 0 0
-78.6949 -38.7633 1028.13 0 0
-8.41256 -38.6516 1025.17 0 0
63.7232 -39.956 1059.76 0 0
-113.722 -36.3699 1040.05 0 0
-42.209 -35.9941 1029.31 0 0
28.6716 -36.6879 1049.14 0 0
-157.722 -35.7686 1109.59 0 0
-75.4607 -32.9575 1022.39 0 0
-5.62531 -33.1353 1027.9 0 0
67.2234 -34.4718 1069.36 0 0
-110.489 -30.5761 1036.39 0 0
-39.3359 -30.3212 1027.75 0 0
31.5689 -30.9814 1050.13 0 0
-149.369 -28.6812 1071.43 0 0
-72.7272 -27.3913 1023.25 0 0
-2.82509 -27.6085 1031.36 0 0
70.0207 -28.5744 1067.44 0 0
-106.89 -24.733 1029.02 0 0
-36.4152 -24.6272 1024.61 0 0
34.3043 -25.1415 1046.01 0 0
-144.795 -22.5674 1059.4 0 0
-69.5834 -21.6893 1018.17 0 0
-0.00592827 -21.9404 1029.96 0 0
-267.136 -20.8582 1123.3 0 0
-103.737 -19.045 1025.65 0 0
-33.3312 -18.8655 1015.98 0 0
37.1487 -19.4153 1045.59 0 0
-140.522 -16.613 1049.11 0 0
-66.3342 -16.0106 1011.07 0 0
2.81234 -16.3268 1031.04 0 0
76.1445 -16.9675 1071.5 0 0
-100.356 -13.3611 1019.79 0 0
-30.613 -13.3369 1017.94 0 0
40.096 -13.7298 1047.93 0 0
-137.354 -10.8539 1046.82 0 0
-63.7611 -10.5146 1014.1 0 0
5.60747 -10.6463 1026.8 0 0
78.8643 -11.0804 1068.67 0 0
-97.2865 -7.76355 1016.83 0 0
-27.9141 -7.7953 1020.99 0 0
42.9016 -7.98997 1046.49 0 0
-133.199 -5.08172 1036.75 0 0
-60.9894 -4.97071 1014.1 0 0
8.41988 -5.03637 1027.5 0 0
82.1311 -5.2603 1073.18 0 0
-94.1388 -2.19606 1012.87 0 0
-25.106 -2.21215 1020.29 0 0
45.9842 -2.27996 1051.57 0 0
-129.584 0.582545 1030.54 0 0
-57.9763 0.570878 1009.9 0 0
11.2396 0.5814 1028.52 0 0
-250.657 3.64441 1104.8 0 0
-173.457 3.60898 1094.06 0 0
-91.1709 3.33388 1010.66 0 0
-22.2463 3.35497 1017.06 0 0
48.7614 3.46192 1049.48 0 0
-125.525 6.15547 1020.44 0 0
-55.1728 6.08713 1009.12 0 0
14.1022 6.22679 1032.27 0 0
-256.881 10.0457 1146.04 0 0
-169.616 9.54221 1088.6 0 0
-88.2082 8.83899 1008.38 0 0
-19.4901 8.92604 1018.31 0 0
51.6898 9.2099 1050.69 0 0
-122.626 11.7236 1019.53 0 0
-52.2955 11.5775 1006.83 0 0
16.9455 11.8853 1033.59 0 0
-162.759 15.1326 1063.25 0 0
-84.9 14.259 1001.86 0 0
-16.7798 14.5564 1022.76 0 0
54.6226 14.9706 1051.86 0 0
-119.497 17.2478 1016.62 0 0
-49.2949 16.996 1001.78 0 0
19.8379 17.5953 1037.1 0 0
-159.041 20.8387 1057.84 0 0
-81.9343 19.6814 999.093 0 0
-13.9603 20.1134 1021.02 0 0
57.576 20.7491 1053.29 0 0
-116.545 22.7718 1015.12 0 0
-46.5776 22.4827 1002.23 0 0
22.6098 23.2003 1034.22 0 0
-155.139 26.4496 1051 0 0
-78.6889 24.98 992.603 0 0
-11.1642 25.6831 1020.54 0 0
60.438 26.4998 1052.99 0 0
-113.094 28.1528 1009.08 0 0
-44.0045 28.0679 1006.03 0 0
25.4735 28.896 1035.71 0 0
-151.123 31.9535 1043.11 0 0
-76.1717 30.4849 995.164 0 0
-8.39367 31.3334 1022.86 0 0
-206.526 38.7837 1162.36 0 0
-109.486 33.4102 1001.31 0 0
-41.4471 33.7244 1010.73 0 0
28.312 34.5672 1035.99 0 0
-147.057 37.3476 1034.56 0 0
-73.4179 35.9089 994.709 0 0
-5.58075 36.8131 1019.76 0 0
-191.154 42.4311 1092.65 0 0
-107.545 39.1741 1008.78 0 0
-38.6197 39.1843 1009.04 0 0
31.1924 40.2936 1037.6 0 0
-235.32 47.0837 1132.73 0 0
-143.165 42.6861 1026.93 0 0
-70.8672 41.4453 997.077 0 0
-2.79948 42.4817 1022.01 0 0
-184.041 47.343 1068.69 0 0
-104.471 44.5539 1005.73 0 0
-35.9288 44.7844 1010.93 0 0
33.9278 45.8298 1034.53 0 0
-139.291 47.9329 1019.12 0 0
-68.2976 47.0034 999.357 0 0
-0.00588159 48.0613 1021.85 0 0
-178.382 52.3814 1052.53 0 0
-101.509 49.9472 1003.62 0 0
-33.1924 50.3518 1011.75 0 0
36.7596 51.491 1034.64 0 0
-135.608 53.1526 1012.42 0 0
-65.5717 52.4713 999.445 0 0
2.78113 53.5293 1019.6 0 0
74.8687 55.3117 1053.55 0 0
-173.438 57.4511 1040.14 0 0
-98.7342 55.4163 1003.3 0 0
-30.3579 55.7563 1009.46 0 0
39.67 57.266 1036.79 0 0
-206.26 59.9177 1033.65 0 0
-132.086 58.3541 1006.67 0 0
-63.0204 58.1017 1002.32 0 0
5.58002 59.2296 1021.78 0 0
77.712 61.0426 1053.05 0 0
-168.786 62.4677 1029.11 0 0
-95.846 60.8087 1001.78 0 0
-27.6144 61.3098 1010.03 0 0
-209.936 67.6638 1066.68 0 0
-128.689 63.5389 1001.65 0 0
-60.2027 63.499 1001.02 0 0
8.37585 64.8377 1022.13 0 0
80.994 67.1341 1058.33 0 0
-164.912 67.6586 1022.53 0 0
-92.9047 66.1408 999.594 0 0
-25.0019 67.2304 1016.06 0 0
-209.541 74.3902 1079.67 0 0
-125.68 68.8662 999.495 0 0
-57.409 68.9025 1000.02 0 0
11.1671 70.4086 1021.88 0 0
84.2433 73.2296 1062.82 0 0
-160.963 72.7271 1015.25 0 0
-90.0222 71.4862 997.93 0 0
-22.1425 72.5164 1012.31 0 0
-202.986 78.8918 1060.83 0 0
-122.6 74.12 996.667 0 0
-54.7405 74.4578 1001.21 0 0
14.0125 76.2794 1025.7 0 0
-157.266 77.8214 1009.34 0 0
-86.9511 76.6391 994.005 0 0
-19.413 78.2019 1014.27 0 0
51.17 80.1951 1040.13 0 0
-197.567 83.6252 1047.48 0 0
-119.771 79.499 995.794 0 0
-52.1266 80.1202 1003.57 0 0
16.8197 81.9036 1025.91 0 0
-245.549 91.5688 1109.01 0 0
-153.885 83.0038 1005.27 0 0
-84.2882 82.1259 994.643 0 0
-16.5922 83.5036 1011.33 0 0
54.468 86.6046 1048.88 0 0
-193.116 88.6228 1038.93 0 0
-116.556 84.5853 991.602 0 0
-49.3709 85.5849 1003.32 0 0
19.6387 87.5779 1026.68 0 0
-227.272 91.4938 1039.29 0 0
-151.032 88.4374 1004.57 0 0
-81.5028 87.492 993.831 0 0
-13.9039 89.5221 1016.89 0 0
57.3272 92.3259 1048.74 0 0
-189.12 93.7296 1032.62 0 0
-113.732 89.9163 990.611 0 0
-46.6672 91.1457 1004.16 0 0
22.5924 93.8024 1033.42 0 0
-147.515 93.4412 999.35 0 0
-78.8007 92.9422 994.014 0 0
-11.1503 95.3039 1019.27 0 0
60.2947 98.2235 1050.5 0 0
-184.702 98.5237 1023.78 0 0
-111.073 95.3735 991.044 0 0
-43.9072 96.6017 1003.81 0 0
25.4648 99.6383 1035.36 0 0
-144.481 98.6976 997.26 0 0
-76.1356 98.4436 994.693 0 0
-8.39319 101.226 1022.8 0 0
63.3348 104.244 1053.3 0 0
-181.004 103.605 1018.71 0 0
-108.113 100.558 988.752 0 0
-41.1953 102.169 1004.59 0 0
28.2654 105.189 1034.28 0 0
-226.912 112.589 1078.07 0 0
-141.499 103.962 995.463 0 0
-73.403 103.862 994.507 0 0
-5.60758 107.011 1024.66 0 0
66.6356 110.703 1060.01 0 0
-177.095 108.486 1012.29 0 0
-105.003 105.554 984.93 0 0
-38.4702 107.719 1005.13 0 0
31.2164 111.284 1038.4 0 0
-220.669 116.739 1062.2 0 0
-138.403 109.108 992.771 0 0
-70.9161 109.657 997.765 0 0
-2.81867 113.092 1029.02 0 0
-173.876 113.725 1009.67 0 0
-102.157 110.772 983.453 0 0
-35.763 113.342 1006.27 0 0
-215.093 121.042 1049.17 0 0
-135.187 114.111 989.096 0 0
-68.1109 114.98 996.624 0 0
-0.00592968 118.854 1030.21 0 0
-170.155 118.574 1003.99 0 0
-99.7547 116.482 986.276 0 0
-33.0782 119.079 1008.27 0 0
37.3062 124.011 1050.02 0 0
-210.18 125.556 1039.06 0 0
-132.352 119.4 988.114 0 0
-65.1302 119.956 992.715 0 0
2.80799 124.394 1029.45 0 0
-248.087 130.406 1055.33 0 0
-166.767 123.586 1000.13 0 0
-96.8091 121.56 983.739 0 0
-30.3755 124.811 1010.04 0 0
40.3897 130.44 1055.6 0 0
-206.718 130.842 1035.94 0 0
-129.499 124.656 986.958 0 0
-62.3017 125.152 990.887 0 0
5.65081 130.691 1034.74 0 0
-248.94 138.251 1071.41 0 0
-163.125 128.339 994.592 0 0
-93.9207 126.669 981.655 0 0
-27.5942 130.236 1009.3 0 0
43.4226 136.675 1059.2 0 0
-201.851 135.143 1025.6 0 0
-126.37 129.608 983.596 0 0
-59.5181 130.405 989.638 0 0
8.48924 136.509 1035.96 0 0
-249.955 146.419 1088.59 0 0
-159.964 133.407 991.85 0 0
-91.4115 132.288 983.528 0 0
-24.8273 135.709 1008.97 0 0
46.5586 143.206 1064.7 0 0
-197.952 139.975 1019.95 0 0
-123.353 134.628 980.992 0 0
-56.9113 136.05 991.352 0 0
11.3228 142.195 1036.13 0 0
-244.632 150.922 1078.24 0 0
-156.982 138.591 990.145 0 0
-88.5472 137.392 981.578 0 0
-22.1087 141.477 1010.77 0 0
-194.293 144.901 1015.4 0 0
-120.507 139.8 979.653 0 0
-54.1694 141.386 990.764 0 0
14.1591 147.902 1036.43 0 0
-237.527 154.119 1059.69 0 0
-153.593 143.367 985.763 0 0
-85.7378 142.548 980.134 0 0
-19.3871 147.316 1012.92 0 0
-190.2 149.417 1008.41 0 0
-117.398 144.624 976.065 0 0
-51.4212 146.688 989.994 0 0
17.0168 153.792 1037.94 0 0
-231.821 157.997 1047.01 0 0
-150.264 148.13 981.619 0 0
-83.0895 147.961 980.498 0 0
-16.6219 152.887 1013.14 0 0
-186.454 154.113 1003.09 0 0
-114.218 149.292 971.714 0 0
-48.7277 152.139 990.248 0 0
19.9874 160.538 1044.92 0 0
-227.125 162.409 1038.62 0 0
-147.084 152.98 978.315 0 0
-80.35 153.208 979.774 0 0
-13.8649 158.567 1014.04 0 0
-182.715 158.73 997.649 0 0
-111.817 154.957 973.935 0 0
-46.0776 157.747 991.469 0 0
22.9762 167.216 1050.98 0 0
-222.609 166.831 1030.85 0 0
-144.273 158.178 977.387 0 0
-77.4592 158.13 977.091 0 0
-11.1196 164.502 1016.46 0 0
-178.621 162.937 990.069 0 0
-109.228 160.388 974.584 0 0
-43.4309 163.406 992.918 0 0
25.9566 173.681 1055.36 0 0
-217.736 170.854 1021.21 0 0
-140.802 162.598 971.869 0 0
-74.4896 162.819 973.188 0 0
-8.33207 169.874 1015.36 0 0
-175.512 167.964 987.804 0 0
-106.2 165.15 971.255 0 0
-40.7242 168.865 993.099 0 0
28.9023 179.83 1057.58 0 0
-213.288 175.076 1013.34 0 0
-138.38 168.197 973.521 0 0
-71.8556 168.2 973.543 0 0
-5.5756 176.023 1018.82 0 0
-171.887 172.437 982.517 0 0
-103.413 170.243 970.016 0 0
-38.1087 174.748 995.687 0 0
31.9487 186.52 1062.76 0 0
-208.948 179.269 1005.79 0 0
-134.976 172.569 968.192 0 0
-69.0249 173.097 971.156 0 0
-2.79765 182.043 1021.34 0 0
-168.533 177.106 978.637 0 0
-100.73 175.49 969.708 0 0
-35.3766 180.138 995.392 0 0
34.9305 192.754 1065.1 0 0
-205.396 184.048 1001.87 0 0
-132.217 177.711 967.37 0 0
-66.4626 178.655 972.507 0 0
-0.00590221 188.377 1025.43 0 0
-259.658 203.563 1091.85 0 0
-165.46 182.018 976.291 0 0
-97.9811 180.611 968.741 0 0
-32.7228 185.961 997.436 0 0
-201.868 188.787 997.966 0 0
-129.153 182.405 964.23 0 0
-63.7073 183.691 971.027 0 0
2.81799 195.436 1033.11 0 0
-249.714 203.851 1062.25 0 0
-161.975 186.415 971.391 0 0
-94.939 185.138 964.737 0 0
-30.0539 191.781 999.349 0 0
-197.853 192.988 991.516 0 0
-126.081 187.03 960.906 0 0
-61.2325 189.555 973.882 0 0
5.68999 202.796 1041.91 0 0
-243.93 207.211 1049.85 0 0
-158.781 191.078 968.109 0 0
-92.1282 190.054 962.92 0 0
-27.3584 197.504 1000.67 0 0
-194.731 197.989 989.424 0 0
-123.032 191.624 957.616 0 0
-58.5102 194.679 972.88 0 0
8.58672 209.683 1047.86 0 0
-239.351 211.441 1042.41 0 0
-156.37 196.666 969.568 0 0
-89.3416 194.981 961.258 0 0
-24.6503 203.199 1001.78 0 0
-191.026 202.339 984.268 0 0
-120.355 196.763 957.147 0 0
-55.9031 200.184 973.789 0 0
11.5206 216.72 1054.23 0 0
-234.182 215.01 1032.18 0 0
-153.384 201.525 967.447 0 0
-86.8037 200.443 962.251 0 0
-22.0176 209.681 1006.6 0 0
-187.68 206.996 980.841 0 0
-117.61 201.774 956.097 0 0
-53.3278 205.842 975.371 0 0
14.4729 223.576 1059.4 0 0
-228.971 218.373 1021.52 0 0
-150.318 206.237 964.746 0 0
-84.3818 206.212 964.633 0 0
-19.3044 215.612 1008.6 0 0
-184.582 211.88 978.63 0 0
-114.92 206.865 955.467 0 0
-50.6288 211.037 974.738 0 0
17.4643 230.63 1065.23 0 0
-224.648 222.443 1014.61 0 0
-147.532 211.297 963.771 0 0
-81.7518 211.503 964.713 0 0
-16.6324 222.261 1013.78 0 0
-181.06 216.218 974.074 0 0
-112.232 211.943 954.812 0 0
-48.016 216.598 975.786 0 0
-220.545 226.622 1008.53 0 0
-144.54 216.031 961.391 0 0
-79.328 217.361 967.312 0 0
-13.9181 228.736 1017.93 0 0
-178.336 221.468 973.741 0 0
-109.555 217.03 954.229 0 0
-45.4956 222.651 978.945 0 0
-217.049 231.348 1005.1 0 0
-142.008 221.437 962.044 0 0
-76.7442 222.825 968.072 0 0
-11.238 236.454 1027.29 0 0
-174.903 225.795 969.463 0 0
-106.934 222.22 954.115 0 0
-42.8769 228.307 980.252 0 0
-213.111 235.527 999.521 0 0
-139.255 226.495 961.189 0 0
-73.9653 227.708 966.338 0 0
-8.59125 246.702 1046.94 0 0
-172.308 231.168 969.773 0 0
-104.645 228.132 957.033 0 0
-40.2283 233.846 981.005 0 0
-209.649 240.155 996.05 0 0
-136.289 231.175 958.808 0 0
-71.3863 233.195 967.184 0 0
-5.81077 256.005 1061.79 0 0
-169.532 236.295 969.056 0 0
-102.086 233.495 957.573 0 0
-37.6946 240.151 984.867 0 0
-206.165 244.697 992.388 0 0
-133.174 235.543 955.264 0 0
-68.9654 239.256 970.319 0 0
-2.96602 266.993 1082.81 0 0
-166.654 241.262 967.728 0 0
-99.5021 238.81 957.892 0 0
-35.0809 246.084 987.072 0 0
-202.127 248.493 985.923 0 0
-130.654 240.934 955.934 0 0
-66.3018 244.518 970.154 0 0
-0.00630527 276.101 1095.46 0 0
-250.019 267.85 1051.32 0 0
-164.064 246.635 968.053 0 0
-96.9343 244.174 958.391 0 0
-32.4477 251.984 989.049 0 0
-199.31 253.727 985.317 0 0
-127.997 246.076 955.605 0 0
-63.7875 250.362 972.25 0 0
2.9798 281.31 1092.43 0 0
-249.667 276.388 1062.05 0 0
-161.487 252.034 968.464 0 0
-94.7407 250.54 962.721 0 0
-29.9177 258.893 994.819 0 0
-196.387 258.811 984.168 0 0
-125.555 251.64 956.899 0 0
-60.9923 255.102 970.062 0 0
5.9483 286.435 1089.21 0 0
-244.393 279.483 1051.84 0 0
-158.629 256.988 967.181 0 0
-91.9706 255.418 961.273 0 0
-27.3178 265.492 999.185 0 0
-192.976 263.209 980.506 0 0
-123.178 257.369 958.752 0 0
-58.4809 261.03 972.392 0 0
8.88271 290.985 1083.98 0 0
-238.059 281.148 1036.78 0 0
-155.889 262.113 966.582 0 0
-89.5886 261.39 963.915 0 0
-24.7478 272.731 1005.74 0 0
-189.576 267.552 976.795 0 0
-120.406 262.282 957.552 0 0
-55.8876 266.655 973.519 0 0
11.8386 296.734 1083.33 0 0
-233.412 284.606 1028.79 0 0
-153.27 267.437 966.727 0 0
-87.124 267.181 965.802 0 0
-22.1503 280.146 1012.67 0 0
-187.035 273.081 977.471 0 0
-117.984 267.96 959.14 0 0
-53.36 272.659 975.959 0 0
-228.952 288.156 1021.44 0 0
-150.816 273.065 967.942 0 0
-84.6205 272.901 967.362 0 0
-19.7357 290.892 1031.13 0 0
-184.329 278.373 977.287 0 0
-115.609 273.788 961.191 0 0
-50.796 278.563 977.956 0 0
-224.417 291.476 1013.56 0 0
-148.131 278.282 967.682 0 0
-82.1001 278.61 968.823 0 0
-17.2894 303.054 1053.82 0 0
-181.58 283.595 976.874 0 0
-113.037 279.18 961.665 0 0
-48.3423 285.204 982.416 0 0
-221.22 296.446 1011.62 0 0
-145.407 283.418 967.158 0 0
-79.581 284.367 970.397 0 0
-14.6806 314.638 1073.7 0 0
-178.928 288.965 976.972 0 0
-110.446 284.535 961.994 0 0
-45.7473 291.15 984.361 0 0
-217.58 300.768 1007.56 0 0
-142.945 289.073 968.387 0 0
-76.8275 289.292 969.124 0 0
-11.761 320.927 1075.1 0 0
-176.062 293.98 975.889 0 0
-108.103 290.564 964.55 0 0
-43.2513 297.873 988.812 0 0
-214.285 305.503 1005.02 0 0
-140.397 294.576 969.075 0 0
-74.4971 295.856 973.286 0 0
-8.82078 326.747 1074.91 0 0
-247.297 308.309 1005.21 0 0
-173.554 299.589 976.783 0 0
-106.061 297.503 969.982 0 0
-40.6956 304.379 992.401 0 0
-210.953 310.139 1002.25 0 0
-137.958 300.33 970.552 0 0
-71.9243 301.544 974.473 0 0
-5.86023 331.36 1070.83 0 0
-239.779 307.683 985.606 0 0
-170.515 304.27 974.673 0 0
-103.295 302.471 968.912 0 0
-38.4549 313.654 1004.73 0 0
-208.051 315.371 1001.46 0 0
-135.625 306.359 972.846 0 0
-69.6241 308.482 979.587 0 0
-2.92968 336.81 1069.54 0 0
-249.351 329.268 1036.6 0 0
-168.076 310.014 975.981 0 0
-100.755 308.098 969.95 0 0
-35.9264 321.094 1010.86 0 0
-204.712 319.906 998.53 0 0
-132.749 311.168 971.255 0 0
-67.0255 314.207 980.743 0 0
-0.00615038 342.338 1068.55 0 0
-244.428 332.096 1027.81 0 0
-165.634 315.781 977.317 0 0
-98.222 313.78 971.123 0 0
-33.5085 330.02 1021.39 0 0
-201.414 324.449 995.72 0 0
-130.814 318.23 976.635 0 0
-64.4996 320.338 983.104 0 0
2.90601 347.147 1065.38 0 0
-238.771 333.734 1015.7 0 0
-162.985 321.167 977.449 0 0
-95.9326 320.308 974.833 0 0
-31.2636 341.58 1039.57 0 0
-198.924 330.278 996.883 0 0
-128.35 324.087 978.199 0 0
-62.1987 327.749 989.249 0 0
5.80536 352.195 1063.04 0 0
-242.483 348.616 1043.62 0 0
-160.786 327.474 980.334 0 0
-93.4321 326.21 976.549 0 0
-28.9694 353.951 1059.59 0 0
-196.069 335.504 996.219 0 0
-125.837 329.856 979.448 0 0
-59.675 334.166 992.247 0 0
8.69417 357.311 1060.97 0 0
-240.993 356.337 1049.56 0 0
-158.356 333.359 981.881 0 0
-90.924 332.138 978.283 0 0
-26.1061 360.199 1060.94 0 0
-277.809 362.321 1058.66 0 0
-192.997 340.335 994.423 0 0
-123.401 335.868 981.371 0 0
-57.1595 340.764 995.675 0 0
11.5887 362.936 1060.46 0 0
-237.103 360.521 1045.06 0 0
-155.435 338.211 980.386 0 0
-88.4763 338.352 980.793 0 0
-23.2046 365.976 1060.87 0 0
-274.202 367.153 1055.91 0 0
-190.393 345.979 995.019 0 0
-120.861 341.636 982.529 0 0
-54.6315 347.438 999.215 0 0
14.453 367.859 1057.94 0 0
-232.863 364.071 1038.88 0 0
-152.623 343.274 979.538 0 0
-85.8452 343.913 981.363 0 0
-20.1925 369.719 1055 0 0
-188.414 352.806 998.947 0 0
-118.346 347.508 983.945 0 0
-52.1955 354.909 1004.9 0 0
17.3021 372.722 1055.34 0 0
-228.263 366.922 1030.94 0 0
-150.301 349.454 981.857 0 0
-83.4024 350.284 984.19 0 0
-17.262 374.473 1052.15 0 0
-185.599 358.104 998.491 0 0
-115.758 353.197 984.811 0 0
-49.7233 362.404 1010.48 0 0
-224.819 371.523 1028.07 0 0
-148.018 355.785 984.523 0 0
-80.8237 356.156 985.55 0 0
-14.3623 379.599 1050.42 0 0
-182.617 363.061 997.114 0 0
-113.07 358.593 984.844 0 0
-47.5657 372.664 1023.49 0 0
22.9959 383.002 1051.88 0 0
-221.059 375.529 1023.67 0 0
-146.049 362.964 989.42 0 0
-78.3545 362.584 988.385 0 0
-11.4581 384.237 1047.41 0 0
-247.017 367.007 993.043 0 0
-179.935 368.601 997.354 0 0
-110.813 365.412 988.726 0 0
-45.6418 385.642 1043.46 0 0
-217.933 380.552 1022.13 0 0
-143.906 369.815 993.293 0 0
-75.8177 368.79 990.539 0 0
-8.57244 388.935 1044.65 0 0
-250.711 382.206 1019.09 0 0
-177.454 374.572 998.737 0 0
-108.289 371.431 990.362 0 0
-43.144 394.588 1052.11 0 0
-214.703 385.358 1020.06 0 0
-141.198 375.263 993.341 0 0
-73.2466 374.903 992.389 0 0
-5.71908 394.792 1045.03 0 0
-246.986 386.307 1015.23 0 0
-175.088 380.822 1000.81 0 0
-105.767 377.507 992.101 0 0
-40.1674 399.338 1049.48 0 0
31.419 397.689 1045.14 0 0
-211.45 390.078 1017.83 0 0
-138.567 380.927 993.95 0 0
-70.8841 382.216 997.314 0 0
-2.85182 399.004 1041.12 0 0
-256.333 411.308 1065.62 0 0
-172.802 387.301 1003.42 0 0
-103.283 383.775 994.288 0 0
-37.1988 403.99 1046.66 0 0
34.3646 404.448 1047.85 0 0
-208.404 395.141 1016.54 0 0
-136.085 387.027 995.665 0 0
-68.5131 389.688 1002.51 0 0
-0.00596931 403.13 1037.09 0 0
-254.501 418.913 1070.17 0 0
-169.915 392.454 1002.57 0 0
-100.503 388.971 993.677 0 0
-34.1696 407.706 1041.54 0 0
37.1975 409.831 1046.97 0 0
-205.615 400.678 1016.49 0 0
-133.258 392.162 994.881 0 0
-66.1095 397.192 1007.64 0 0
2.82616 408.412 1036.11 0 0
-246.957 416.965 1050.52 0 0
-167.465 398.627 1004.32 0 0
-97.9505 395.063 995.338 0 0
-31.1848 411.58 1036.95 0 0
-202.723 406.008 1015.92 0 0
-130.817 398.447 996.999 0 0
-64.0614 407.189 1018.87 0 0
5.65463 413.808 1035.44 0 0
-235.136 407.208 1012 0 0
-164.759 404.213 1004.56 0 0
-95.438 401.379 997.514 0 0
-28.3778 417.653 1037.96 0 0
42.7753 419.847 1043.41 0 0
-200.068 411.814 1016.54 0 0
-128.274 404.472 998.418 0 0
-61.9978 417.619 1030.87 0 0
-236.841 420.683 1031.47 0 0
-162.221 410.23 1005.84 0 0
-93.067 408.393 1001.34 0 0
-25.3754 420.588 1031.24 0 0
-196.84 416.42 1014.22 0 0
-125.505 409.8 998.1 0 0
-59.6938 426.929 1039.82 0 0
-243.249 443.133 1072.15 0 0
-158.999 414.497 1002.86 0 0
-90.3309 413.872 1001.35 0 0
-22.5401 425.914 1030.49 0 0
-194.328 422.53 1015.58 0 0
-123.006 416.033 999.967 0 0
-56.5446 430.278 1034.21 0 0
-237.662 444.03 1060.29 0 0
-156.479 420.576 1004.29 0 0
-87.8736 420.686 1004.55 0 0
-19.6705 430.393 1027.73 0 0
-191.333 427.594 1014.42 0 0
-120.504 422.31 1001.89 0 0
-53.4372 433.656 1028.81 0 0
-233.372 447.16 1054.01 0 0
-154.219 427.41 1007.45 0 0
-85.5693 428.388 1009.76 0 0
-16.819 434.918 1025.15 0 0
54.2521 443.222 1044.73 0 0
-188.629 433.298 1014.8 0 0
-117.874 428.182 1002.81 0 0
-50.389 437.233 1024.01 0 0
-229.506 450.987 1049.51 0 0
-151.832 433.966 1009.89 0 0
-83.3684 436.838 1016.58 0 0
-13.9653 438.902 1021.38 0 0
57.2416 449.986 1047.18 0 0
-185.663 438.391 1013.74 0 0
-115.106 433.561 1002.58 0 0
-47.506 442.05 1022.2 0 0
-226.845 457.144 1050.47 0 0
-148.974 439.198 1009.23 0 0
-81.0726 445.047 1022.67 0 0
-11.1738 444.501 1021.42 0 0
60.2545 456.852 1049.8 0 0
-183.172 444.613 1015.3 0 0
-112.311 438.831 1002.09 0 0
-44.7523 448.043 1023.13 0 0
-223.033 460.942 1046.06 0 0
-146.467 445.481 1010.97 0 0
-78.9384 454.445 1031.31 0 0
-8.34282 447.992 1016.67 0 0
63.6875 466.72 1059.17 0 0
-180.347 450.041 1015.02 0 0
-109.582 444.352 1002.19 0 0
-41.7487 451.398 1018.08 0 0
-219.854 465.982 1044.54 0 0
-143.366 449.949 1008.59 0 0
-76.4884 462.313 1036.31 0 0
-5.56677 453.789 1017.2 0 0
-177.758 456.064 1016.08 0 0
-107.478 452.504 1008.15 0 0
-38.8984 456.173 1016.32 0 0
-216.254 470.074 1040.95 0 0
-140.976 456.652 1011.23 0 0
-73.3653 466.133 1032.22 0 0
-175.12 461.987 1016.89 0 0
-105.143 459.857 1012.2 0 0
-36.0823 461.242 1015.25 0 0
-213.789 476.613 1042.81 0 0
-138.358 462.667 1012.29 0 0
-70.2731 469.966 1028.26 0 0
-323.196 485.382 1055.68 0 0
-172.088 466.861 1015.4 0 0
-102.847 467.531 1016.85 0 0
-33.2287 465.693 1012.86 0 0
-210.829 482.064 1042.27 0 0
-135.88 469.202 1014.46 0 0
-66.9892 472.252 1021.05 0 0
-169.265 472.28 1015.11 0 0
-100.545 475.348 1021.71 0 0
-30.4083 470.428 1011.13 0 0
-207.083 485.656 1037.77 0 0
-133.43 475.9 1016.92 0 0
-63.9508 475.992 1017.12 0 0
-166.152 476.858 1013.05 0 0
-98.7736 485.956 1032.38 0 0
-27.5687 474.652 1008.36 0 0
-203.305 489.066 1032.99 0 0
-131.003 482.757 1019.66 0 0
-61.0592 480.675 1015.26 0 0
-163.392 482.422 1013.1 0 0
-96.6313 495.082 1039.69 0 0
-24.7541 479.036 1005.99 0 0
-199.849 493.153 1029.73 0 0
-128.072 487.786 1018.52 0 0
-58.0376 484.17 1010.97 0 0
-160.694 488.178 1013.56 0 0
-94.3953 504.001 1046.41 0 0
-22.027 485.036 1007.03 0 0
-196.842 498.295 1028.72 0 0
-125.653 494.788 1021.48 0 0
-54.9977 487.247 1005.91 0 0
-247.156 537.12 1102.65 0 0
-158.39 495.176 1016.55 0 0
-91.2904 508.359 1043.61 0 0
-19.2247 489.277 1004.44 0 0
50.9133 504.12 1034.91 0 0
-194.217 504.405 1029.71 0 0
-123.532 503.108 1027.07 0 0
-52.1812 492.115 1004.62 0 0
-238.95 531.595 1079.2 0 0
-156.268 502.847 1020.84 0 0
-87.519 508.724 1032.77 0 0
-16.4805 494.81 1004.52 0 0
54.3888 515.912 1047.36 0 0
-191.683 510.782 1031.22 0 0
-121.429 511.689 1033.05 0 0
-49.317 496.419 1002.23 0 0
-236.444 538.508 1081.23 0 0
-153.715 509.214 1022.42 0 0
-84.1626 511.131 1026.26 0 0
-13.7602 501.23 1006.39 0 0
-188.766 516.15 1030.69 0 0
-119.243 520.121 1038.62 0 0
-46.65 502.679 1003.79 0 0
-230.263 536.898 1066.3 0 0
-151.588 517.082 1026.94 0 0
-80.5437 511.573 1016 0 0
-184.477 517.656 1022.53 0 0
-117.227 529.515 1045.96 0 0
-43.7186 505.995 999.497 0 0
-225.619 538.598 1058.18 0 0
-149.42 524.94 1031.35 0 0
-77.3429 514.311 1010.47 0 0
-8.23007 510.474 1002.93 0 0
-180.786 520.665 1017.49 0 0
-115.339 539.777 1054.83 0 0
-40.8157 509.327 995.33 0 0
-221.524 541.444 1052.47 0 0
-148.362 536.955 1043.74 0 0
-74.1243 516.652 1004.28 0 0
-5.48939 516.027 1003.06 0 0
-178.406 527.415 1019.78 0 0
-113.731 551.73 1066.8 0 0
-38.07 514.43 994.676 0 0
-218.396 546.568 1051.26 0 0
-146.173 545.136 1048.5 0 0
-71.2094 520.901 1001.89 0 0
-175.896 533.831 1021.39 0 0
-112.792 567.511 1085.83 0 0
-35.1987 517.627 990.387 0 0
686.972 702.434 1343.98 0 0
-215.822 553.085 1052.72 0 0
-144.532 555.578 1057.47 0 0
-68.3211 525.227 999.701 0 0
-0.00576214 525.961 1001.1 0 0
-173.594 540.943 1024.28 0 0
-110.382 576.358 1091.34 0 0
-32.4855 522.944 990.203 0 0
689.774 708.886 1342.29 0 0
-211.204 554.272 1044.12 0 0
-142.398 564.357 1063.12 0 0
-65.4354 529.453 997.367 0 0
-171.624 549.196 1029.26 0 0
-104.115 564.522 1057.98 0 0
-29.8353 529.358 992.08 0 0
-206.242 554.313 1033.55 0 0
-139.972 572.129 1066.77 0 0
-62.3382 531.742 991.467 0 0
652.336 723.132 1348.33 0 0
-262.012 607.874 1127.67 0 0
-169.326 556.518 1032.4 0 0
-99.5448 560.85 1040.44 0 0
-203.769 560.934 1035.35 0 0
-137.051 577.94 1066.73 0 0
-59.313 534.324 986.229 0 0
-250.921 595.046 1092.79 0 0
-167.899 566.872 1041.05 0 0
-95.9636 562.218 1032.51 0 0
-24.3395 538.607 989.144 0 0
-199.743 563.221 1029.18 0 0
-134.796 586.649 1071.99 0 0
-56.5444 539.021 984.96 0 0
-243.949 591.36 1075.23 0 0
-165.994 575.827 1046.99 0 0
-92.2971 562.716 1023.15 0 0
-196.764 568.368 1028.31 0 0
-133.733 600.897 1087.17 0 0
-53.6891 542.758 981.978 0 0
-237.461 588.444 1059.4 0 0
-163.728 583.674 1050.81 0 0
-88.3415 560.95 1009.9 0 0
-194.169 574.628 1029.46 0 0
-130.226 604.36 1082.72 0 0
-51.1155 549.314 984.107 0 0
-234.012 592.835 1056.9 0 0
-161.718 592.577 1056.44 0 0
-84.8993 561.959 1001.85 0 0
-191.089 579.45 1028.03 0 0
-128.367 615.555 1092.08 0 0
-48.2701 552.914 980.949 0 0
-230.454 596.879 1053.84 0 0
-159.108 599.4 1058.29 0 0
-81.7458 564.57 996.794 0 0
-188.629 586.16 1029.94 0 0
-45.5161 557.387 979.386 0 0
-226.793 600.575 1050.23 0 0
-155.968 604.227 1056.61 0 0
-78.5973 566.962 991.448 0 0
-186.034 592.489 1031.16 0 0
-42.9684 564.441 982.344 0 0
-222.261 601.817 1042.43 0 0
-152.968 609.559 1055.84 0 0
-75.4839 569.34 986.178 0 0
-278.244 656.043 1131.01 0 0
-183.413 598.773 1032.27 0 0
-217.301 601.674 1032.41 0 0
-149.965 614.85 1055.02 0 0
-72.7539 574.46 985.713 0 0
-273.235 657.61 1123.12 0 0
-181.247 606.612 1036.02 0 0
-112.11 615.727 1051.59 0 0
-216.396 612.745 1041.63 0 0
-147.919 624.152 1061.03 0 0
-69.846 578.082 982.709 0 0
641.742 793.729 1349.3 0 0
-257.771 633.301 1071.6 0 0
-179.279 615.239 1041.04 0 0
-106.995 608.733 1030.03 0 0
-212.478 615.339 1036.41 0 0
-146.525 636.496 1072.05 0 0
-66.6944 579.41 975.898 0 0
641.65 796.413 1341.4 0 0
-254.897 639.299 1071.83 0 0
-175.876 618.969 1037.75 0 0
-102.611 605.11 1014.51 0 0
-209.359 620.158 1035 0 0
-144.445 646.162 1078.4 0 0
-63.7584 582.294 971.807 0 0
-249.893 639.845 1063.01 0 0
-173.721 627.104 1041.84 0 0
-99.2136 606.84 1008.17 0 0
-205.886 623.863 1031.77 0 0
-142.284 655.682 1084.39 0 0
-61.3482 589.974 975.722 0 0
-245.405 641.522 1056.2 0 0
-170.447 631.221 1039.24 0 0
-93.4825 593.463 977.075 0 0
