ply
format ascii 1.0
element vertex 1185
property float x
property float y
property float z
property float u
property float v
end_header
-109.495 -646.601 1178.09 0 0
-29.0978 -649.031 1182.52 0 0
-61.6226 -586.216 1073.42 0 0
-24.3707 -605.432 1114.18 0 0
-62.3209 -616.268 1139.86 0 0
15.5688 -616.138 1139.62 0 0
-99.0749 -609.25 1132.6 0 0
-21.2491 -597.204 1110.21 0 0
-58.5352 -603.133 1126.96 0 0
18.7596 -612.381 1144.24 0 0
-92.4443 -580.848 1090.89 0 0
-18.1898 -590.336 1108.71 0 0
-54.2568 -584.076 1102.61 0 0
21.3492 -591.225 1116.11 0 0
-91.0157 -584.866 1109.83 0 0
-15.095 -581.798 1104.01 0 0
-129.299 -590.414 1126.2 0 0
-50.7019 -571.945 1090.97 0 0
24.7648 -593.871 1132.79 0 0
-87.1721 -573.47 1099.61 0 0
-12.0599 -574.935 1102.42 0 0
-123.037 -569.521 1097.79 0 0
-47.877 -567.846 1094.57 0 0
28.1967 -594.756 1146.44 0 0
-83.1321 -560.485 1086.1 0 0
-9.02884 -567.796 1100.27 0 0
-124.71 -585.459 1140.54 0 0
-44.694 -559.47 1089.9 0 0
-164.035 -589.219 1154 0 0
-80.9818 -560.21 1097.19 0 0
-6.01594 -561.278 1099.28 0 0
-112.092 -533.969 1051.42 0 0
-41.8325 -555.073 1092.98 0 0
-156.267 -566.194 1120.91 0 0
-78.5813 -558.466 1105.61 0 0
-3.00983 -555.027 1098.8 0 0
-116.954 -565.634 1125.89 0 0
-38.8429 -549.07 1092.92 0 0
-160.12 -585.353 1171.52 0 0
-74.1379 -542.03 1084.81 0 0
-0.00632314 -548.901 1098.56 0 0
-113.988 -560.029 1127 0 0
-35.8042 -542.319 1091.36 0 0
-154.242 -569.074 1151.54 0 0
-71.4369 -538.09 1088.84 0 0
2.9902 -541.749 1096.25 0 0
-112.218 -560.413 1140.32 0 0
-32.7607 -535.366 1089.35 0 0
-144.354 -537.675 1100.17 0 0
-68.5598 -532.909 1090.42 0 0
6.00914 -537.763 1100.35 0 0
-104.679 -531.716 1094.1 0 0
-29.7013 -527.957 1086.36 0 0
-143.915 -541.319 1120.16 0 0
-65.6122 -527.213 1090.97 0 0
9.04064 -533.149 1103.25 0 0
-103.587 -535.549 1114.52 0 0
-26.7618 -522.605 1087.58 0 0
-138.344 -525.661 1100.2 0 0
-62.5468 -520.555 1089.52 0 0
12.1379 -530.685 1110.72 0 0
-178.195 -533.929 1123.94 0 0
-100.837 -531.019 1117.81 0 0
-23.8942 -518.945 1092.4 0 0
-135.494 -520.254 1101.49 0 0
-59.4036 -513.173 1086.5 0 0
15.2202 -526.211 1114.1 0 0
-177.498 -534.944 1139.18 0 0
-94.9745 -509.841 1085.73 0 0
-20.9373 -513.687 1093.92 0 0
-130.347 -505.938 1083.72 0 0
-56.2811 -505.861 1083.56 0 0
18.336 -522.128 1118.4 0 0
-173.084 -524.775 1130.69 0 0
-92.16 -504.744 1087.53 0 0
-17.9583 -508.022 1094.6 0 0
-126.396 -496.133 1075.31 0 0
-53.2082 -498.896 1081.3 0 0
21.536 -519.46 1125.87 0 0
-168.494 -514.018 1120.72 0 0
-88.6918 -496.028 1081.49 0 0
-15.0853 -506.029 1103.3 0 0
-202.672 -504.527 1106.62 0 0
-124.524 -494.495 1084.61 0 0
-50.2215 -492.681 1080.64 0 0
24.7764 -516.704 1133.33 0 0
-164.519 -505.093 1114.54 0 0
-86.2089 -492.821 1087.46 0 0
-12.1007 -501.289 1106.15 0 0
-199.249 -497.482 1104.41 0 0
-122.803 -493.563 1095.71 0 0
-47.3871 -488.003 1083.37 0 0
28.1292 -515.176 1143.69 0 0
-163.988 -506.774 1131.91 0 0
-83.1993 -486.659 1086.98 0 0
-9.07043 -494.878 1105.33 0 0
-118.109 -480.659 1080.17 0 0
-44.4025 -481.827 1082.8 0 0
-160.444 -499.188 1128.74 0 0
-80.1779 -480.416 1086.3 0 0
-6.03491 -487.69 1102.75 0 0
-197.025 -494.989 1126.21 0 0
-116.4 -479.881 1091.84 0 0
-41.5291 -476.899 1085.05 0 0
-155.723 -487.891 1117.01 0 0
-77.3375 -475.27 1088.11 0 0
-3.02683 -482.65 1105.01 0 0
-195.553 -492.88 1135.54 0 0
-112.963 -472.02 1087.48 0 0
-38.6772 -472.36 1088.26 0 0
-148.402 -468.316 1085.78 0 0
-74.2115 -468.363 1085.89 0 0
-0.00634889 -475.759 1103.04 0 0
-193.695 -489.824 1142.89 0 0
-108.218 -458.566 1069.96 0 0
-35.7456 -466.973 1089.57 0 0
-224.235 -472.071 1108.54 0 0
-142.693 -453.665 1065.32 0 0
-71.3728 -463.267 1087.86 0 0
3.0315 -473.284 1111.39 0 0
-188.83 -479.157 1132.45 0 0
-106.998 -460.043 1087.27 0 0
-32.8831 -462.646 1093.42 0 0
-221.391 -466.403 1109.47 0 0
-140.431 -449.926 1070.28 0 0
-68.5539 -458.355 1090.33 0 0
6.06752 -467.063 1111.04 0 0
-185.487 -472.335 1130.94 0 0
-103.616 -452.312 1082.99 0 0
-29.9296 -457.207 1094.71 0 0
-220.369 -464.578 1119.69 0 0
-138.47 -447.188 1077.78 0 0
-65.5985 -452.566 1090.74 0 0
9.17072 -464.344 1119.13 0 0
-183.55 -469.104 1138.1 0 0
-99.7124 -442.206 1072.84 0 0
-26.9958 -452.204 1097.09 0 0
-218.681 -461.351 1126.76 0 0
-135.368 -440.79 1076.54 0 0
-62.5594 -446.192 1089.74 0 0
12.4336 -465.864 1137.78 0 0
-177.578 -455.542 1120.05 0 0
-96.8334 -436.583 1073.43 0 0
-24.0361 -446.933 1098.88 0 0
-215.638 -455.27 1126.96 0 0
-133.036 -436.908 1081.5 0 0
-59.73 -441.338 1092.47 0 0
-248.272 -444.435 1107.63 0 0
-174.578 -449.578 1120.45 0 0
-93.9222 -430.82 1073.7 0 0
-21.0518 -441.333 1099.9 0 0
-212.364 -448.699 1125.93 0 0
-130.784 -433.329 1087.36 0 0
-56.8676 -436.315 1094.85 0 0
-247.491 -442.395 1117.77 0 0
-170.093 -439.775 1111.15 0 0
-92.1845 -430.542 1087.82 0 0
-18.107 -436.809 1103.66 0 0
-211.802 -447.863 1139.46 0 0
-127.896 -427.666 1088.07 0 0
-53.866 -430.259 1094.67 0 0
-245.94 -438.97 1124.65 0 0
-163.958 -425.658 1090.55 0 0
-90.284 -429.701 1100.91 0 0
-15.1354 -432.066 1106.97 0 0
-200.781 -424.903 1096.29 0 0
-123.952 -418.445 1079.63 0 0
-51.0072 -425.387 1097.54 0 0
-240.475 -428.562 1113.59 0 0
-160.792 -419.213 1089.29 0 0
-87.9711 -427.063 1109.69 0 0
-12.1824 -428.573 1113.62 0 0
-193.789 -410.447 1074.14 0 0
-122.241 -416.772 1090.7 0 0
-48.1016 -420.212 1099.7 0 0
-232.623 -413.918 1091.03 0 0
-158.039 -413.848 1090.85 0 0
-84.8894 -420.757 1109.06 0 0
-9.27743 -428.914 1130.56 0 0
-191.938 -406.875 1080.25 0 0
-117.844 -405.93 1077.74 0 0
-45.2746 -415.843 1104.06 0 0
-215.362 -382.587 1023.19 0 0
-152.247 -400.49 1071.07 0 0
-81.974 -415.282 1110.63 0 0
-6.33214 -432.641 1157.06 0 0
-187.779 -398.41 1073.36 0 0
-114.442 -398.45 1073.47 0 0
-42.3961 -411.16 1107.71 0 0
-208.897 -370.489 1005.54 0 0
-150.038 -396.533 1076.23 0 0
-79.1838 -410.483 1114.09 0 0
-248.409 -377.666 1032.68 0 0
-182.521 -387.608 1059.86 0 0
-111.21 -391.535 1070.6 0 0
-39.6133 -407.625 1114.6 0 0
-205.022 -362.997 1000.04 0 0
-146.709 -389.621 1073.39 0 0
-76.5431 -406.542 1120.01 0 0
-237.789 -360.209 999.892 0 0
-176.493 -375.159 1041.39 0 0
-108.134 -385.149 1069.12 0 0
-36.7938 -404.027 1121.53 0 0
-200.978 -355.213 993.563 0 0
-145.207 -387.576 1084.09 0 0
-73.745 -401.854 1124.02 0 0
-232.527 -350.926 989.135 0 0
-172.967 -368.019 1037.31 0 0
-104.157 -375.501 1058.4 0 0
-34.085 -402.105 1133.39 0 0
-197.84 -349.037 991.45 0 0
-139.685 -374.786 1064.59 0 0
-71.1234 -398.233 1131.19 0 0
-228.01 -342.793 981.333 0 0
-169.159 -360.278 1031.39 0 0
-101.803 -371.683 1064.04 0 0
-31.7267 -405.36 1160.45 0 0
-194.667 -342.801 989.095 0 0
-135.989 -366.846 1058.47 0 0
-68.69 -395.845 1142.14 0 0
-224.399 -336.038 977.289 0 0
-165.983 -353.878 1029.17 0 0
-99.9112 -369.629 1074.98 0 0
-191.831 -337.161 988.414 0 0
-132.058 -358.244 1050.22 0 0
-220.388 -328.697 971.383 0 0
-163.151 -348.212 1029.05 0 0
-97.1484 -364.41 1076.93 0 0
-256.067 -330.975 986.082 0 0
-188.682 -330.973 986.076 0 0
-131.567 -358.994 1069.56 0 0
-216.973 -322.257 967.992 0 0
-160.613 -343.172 1030.82 0 0
-94.348 -359.069 1078.56 0 0
-249.716 -320.886 971.852 0 0
-186.576 -326.614 989.2 0 0
-129.905 -356.612 1080.05 0 0
-214.019 -316.51 966.601 0 0
-158.307 -338.631 1034.16 0 0
-92.735 -358.331 1094.32 0 0
-244.848 -312.748 963.153 0 0
-183.662 -320.841 988.075 0 0
-127.668 -352.683 1086.14 0 0
-211.109 -310.832 965.379 0 0
-155.136 -332.241 1031.87 0 0
-89.8651 -352.825 1095.8 0 0
-240.536 -305.351 956.475 0 0
-181.282 -315.998 989.824 0 0
-123.936 -344.623 1079.49 0 0
-208.27 -305.261 964.451 0 0
-152.812 -327.664 1035.23 0 0
-87.4994 -349.348 1103.74 0 0
-236.194 -297.944 949.533 0 0
-179.24 -311.74 993.501 0 0
-120.75 -338.063 1077.39 0 0
-205.128 -299.25 962.076 0 0
-150.284 -322.653 1037.32 0 0
-85.2841 -346.572 1114.21 0 0
-232.71 -291.639 945.921 0 0
-177.575 -308.133 999.418 0 0
-117.566 -331.499 1075.21 0 0
-270.1 -296.027 968.74 0 0
-202.464 -293.941 961.916 0 0
-147.752 -317.634 1039.45 0 0
-83.9189 -347.438 1136.98 0 0
-229.569 -285.776 943.637 0 0
-175.254 -303.38 1001.77 0 0
-114.882 -326.345 1077.6 0 0
-264.057 -287.04 956.442 0 0
-200.447 -289.567 964.862 0 0
-144.76 -311.627 1038.37 0 0
-225.862 -279.223 938.947 0 0
-173.412 -299.451 1006.97 0 0
-111.156 -318.221 1070.09 0 0
-258.647 -278.798 946.215 0 0
-197.312 -283.577 962.436 0 0
-142.02 -306.164 1039.09 0 0
-222.757 -273.429 936.684 0 0
-171.426 -295.266 1011.49 0 0
-108.644 -313.562 1074.17 0 0
-254.706 -272.178 941.211 0 0
-195.341 -279.259 965.699 0 0
-139.115 -300.343 1038.61 0 0
-221.52 -269.921 942.315 0 0
-169.613 -291.372 1017.2 0 0
-106.026 -308.617 1077.4 0 0
-250.749 -265.566 936.041 0 0
-192.897 -274.258 966.681 0 0
-136.514 -295.18 1040.42 0 0
-70.6961 -319.005 1124.4 0 0
-218.448 -264.169 940.178 0 0
-167.373 -286.737 1020.5 0 0
-103.028 -302.569 1076.84 0 0
-246.948 -259.145 931.356 0 0
-190.488 -269.303 967.863 0 0
-133.771 -289.711 1041.21 0 0
-67.0819 -310.356 1115.41 0 0
-214.095 -256.89 932.411 0 0
-164.655 -281.28 1020.94 0 0
-100.082 -296.675 1076.82 0 0
-243.703 -253.327 928.692 0 0
-188.685 -265.197 972.207 0 0
-131.056 -284.302 1042.25 0 0
-277.484 -253.824 939.936 0 0
-211.703 -251.98 933.104 0 0
-162.55 -276.867 1025.26 0 0
-97.196 -290.96 1077.45 0 0
-238.928 -245.947 920.079 0 0
-188.287 -263.038 984.014 0 0
-128.122 -278.42 1041.56 0 0
-273.615 -247.51 935.49 0 0
-208.847 -246.518 931.741 0 0
-159.463 -270.779 1023.44 0 0
-94.0317 -284.407 1074.95 0 0
-234.716 -239.188 913.475 0 0
-187.97 -260.952 996.594 0 0
-125.148 -272.449 1040.5 0 0
-267.326 -239.058 922.609 0 0
-205.518 -240.509 928.209 0 0
-157.32 -266.291 1027.71 0 0
-91.0147 -278.29 1074.02 0 0
-233.216 -235.2 917.396 0 0
-189.267 -261.051 1018.23 0 0
-122.24 -266.621 1039.96 0 0
-262.78 -232.226 915.56 0 0
-204.292 -236.956 934.206 0 0
-154.695 -260.984 1028.94 0 0
-87.9361 -271.977 1072.28 0 0
-229.42 -228.899 912.275 0 0
-188.044 -257.621 1026.74 0 0
-119.37 -260.876 1039.72 0 0
-257.439 -224.742 905.573 0 0
-202.061 -232.219 935.699 0 0
-151.993 -255.544 1029.69 0 0
-84.7937 -265.453 1069.61 0 0
-224.985 -221.996 904.468 0 0
-185.628 -252.539 1028.91 0 0
-115.69 -253.356 1032.24 0 0
-253.106 -218.19 898.975 0 0
-200.154 -227.844 938.75 0 0
-149.21 -249.969 1029.91 0 0
-81.7966 -259.373 1068.65 0 0
-222.39 -216.932 903.972 0 0
-182.76 -246.839 1028.6 0 0
-111.634 -245.004 1020.95 0 0
-248.619 -211.549 891.697 0 0
-197.884 -223.046 940.158 0 0
-146.215 -244.038 1028.64 0 0
-78.5696 -252.547 1064.51 0 0
-295.717 -222.544 948.976 0 0
-219.718 -211.796 903.143 0 0
-180.107 -241.428 1029.5 0 0
-108.825 -239.383 1020.78 0 0
-245.346 -205.973 888.67 0 0
-197.471 -220.313 950.54 0 0
-143.485 -238.55 1029.22 0 0
-75.2756 -245.475 1059.1 0 0
-283.063 -209.896 916.406 0 0
-216.403 -206.053 899.628 0 0
-178.096 -236.868 1034.16 0 0
-105.881 -233.464 1019.3 0 0
-242.313 -200.614 886.46 0 0
-197.747 -218.288 964.555 0 0
-140.358 -232.405 1026.93 0 0
-72.2283 -239.18 1056.87 0 0
-274.33 -200.338 896.062 0 0
-214.486 -201.644 901.904 0 0
-175.778 -231.887 1037.17 0 0
-103.018 -227.721 1018.54 0 0
-239.447 -195.407 884.822 0 0
-203.605 -222.289 1006.55 0 0
-137.714 -227.058 1028.14 0 0
-69.1454 -232.749 1053.91 0 0
-269.81 -193.951 889.238 0 0
-212.164 -196.847 902.516 0 0
-172.518 -225.661 1034.62 0 0
-100.617 -223.002 1022.43 0 0
-236.91 -190.474 884.38 0 0
-207.383 -223.835 1039.28 0 0
-134.245 -220.356 1023.12 0 0
-65.8592 -225.599 1047.47 0 0
-263.414 -186.286 876.051 0 0
-210.319 -192.482 905.193 0 0
-168.924 -219.011 1029.95 0 0
-97.7674 -217.291 1021.86 0 0
-233.261 -184.664 879.735 0 0
-205.264 -218.922 1042.94 0 0
-130.738 -213.603 1017.6 0 0
-62.8608 -219.401 1045.22 0 0
-259.584 -180.499 871.235 0 0
-208.733 -188.335 909.059 0 0
-166.176 -213.467 1030.37 0 0
-94.7037 -211.101 1018.95 0 0
-231.523 -180.375 882.279 0 0
-202.588 -213.405 1043.84 0 0
-126.946 -206.396 1009.56 0 0
-255.016 -174.242 863.828 0 0
-206.94 -183.98 912.108 0 0
-162.998 -207.375 1028.09 0 0
-91.8013 -205.269 1017.65 0 0
-289.244 -175.455 881.794 0 0
-229.002 -175.468 881.857 0 0
-199.595 -207.553 1043.11 0 0
-124.244 -200.971 1010.03 0 0
-251.474 -168.727 859.791 0 0
-205.834 -180.209 918.298 0 0
-159.762 -201.218 1025.36 0 0
-88.6576 -198.893 1013.51 0 0
-284.9 -169.484 875.849 0 0
-226.87 -170.856 882.941 0 0
-196.599 -201.702 1042.35 0 0
-121.342 -195.223 1008.86 0 0
-247.625 -163.039 854.617 0 0
-206.338 -177.785 931.91 0 0
-156.33 -194.828 1021.24 0 0
-85.7077 -192.949 1011.39 0 0
-277.13 -161.562 859.182 0 0
-225.367 -166.703 886.523 0 0
-193.341 -195.591 1040.15 0 0
-118.291 -189.238 1006.36 0 0
-236.536 -152.716 824.122 0 0
-207.568 -175.891 949.183 0 0
-152.394 -187.834 1013.63 0 0
-82.9071 -187.338 1010.95 0 0
-271.701 -155.107 849.552 0 0
-223.429 -162.208 888.45 0 0
-190.365 -189.772 1039.42 0 0
-115.692 -183.978 1007.69 0 0
-47.9072 -188.205 1030.84 0 0
-228.746 -144.708 804.643 0 0
-217.903 -181.47 1009.06 0 0
-149.271 -181.864 1011.25 0 0
-80.1364 -181.795 1010.86 0 0
-264.275 -147.611 833.454 0 0
-221.182 -157.481 889.182 0 0
-186.753 -183.333 1035.15 0 0
-112.658 -178.027 1005.19 0 0
-45.1031 -182.624 1031.15 0 0
-225.28 -139.524 800.143 0 0
-222.521 -181.987 1043.66 0 0
-146.172 -175.932 1008.93 0 0
-77.3943 -176.316 1011.14 0 0
-259.465 -141.672 825.399 0 0
-213.651 -149.061 868.45 0 0
-181.824 -175.645 1023.33 0 0
-110.078 -172.794 1006.72 0 0
-42.3649 -177.324 1033.11 0 0
-218.686 -175.492 1038.99 0 0
-143.261 -170.234 1007.85 0 0
-74.3382 -170.12 1007.18 0 0
-254.277 -135.597 815.994 0 0
-196.343 -134.113 807.063 0 0
-178.708 -169.748 1021.51 0 0
-107.283 -167.224 1006.32 0 0
-39.5202 -171.586 1032.57 0 0
-214.04 -168.392 1030.29 0 0
-140.251 -164.426 1006.03 0 0
-71.5551 -164.545 1006.75 0 0
-248.97 -129.535 806.031 0 0
-187.981 -125.588 781.471 0 0
-175.68 -163.944 1020.14 0 0
-104.382 -161.489 1004.87 0 0
-36.7065 -165.98 1032.81 0 0
-210.108 -161.899 1024.85 0 0
-137.639 -159.085 1007.04 0 0
-69.1241 -159.783 1011.45 0 0
-245.997 -124.738 803.517 0 0
-172.372 -157.891 1017.07 0 0
-101.695 -156.088 1005.46 0 0
-34.0751 -161.241 1038.66 0 0
-208.969 -117.766 772.199 0 0
-202.909 -152.981 1003.11 0 0
-134.983 -153.69 1007.76 0 0
-66.0572 -153.551 1006.84 0 0
-241.915 -119.415 797.304 0 0
-169.773 -152.493 1018.16 0 0
-99.1374 -150.882 1007.4 0 0
-285.705 -124.949 849.761 0 0
-132.168 -148.113 1007.3 0 0
-63.6819 -148.928 1012.84 0 0
-236.896 -113.693 787.859 0 0
-166.583 -146.569 1015.68 0 0
-96.1623 -145.04 1005.08 0 0
-279.214 -118.534 837.264 0 0
-201.552 -107.617 760.148 0 0
-129.308 -142.489 1006.47 0 0
-60.8785 -143.309 1012.26 0 0
-233.632 -108.869 784.132 0 0
-168.479 -101.874 733.75 0 0
-157.105 -135.247 974.122 0 0
-93.6664 -139.921 1007.79 0 0
-275.927 -113.546 834.243 0 0
-198.264 -102.833 755.534 0 0
-126.675 -137.115 1007.41 0 0
-58.3901 -138.435 1017.11 0 0
-230.636 -104.197 781.245 0 0
-165.041 -97.0202 727.436 0 0
-91.2416 -134.9 1011.45 0 0
-273.122 -108.776 832.644 0 0
-195.471 -98.3367 752.734 0 0
-123.591 -131.256 1004.72 0 0
-55.7924 -133.311 1020.45 0 0
-228.648 -99.9902 781.747 0 0
-162.323 -92.6271 724.181 0 0
-88.7343 -129.747 1014.39 0 0
-270.097 -103.936 830.343 0 0
-193.047 -94.043 751.306 0 0
-120.528 -125.434 1002.09 0 0
-53.3239 -128.505 1026.63 0 0
-226.822 -95.8481 782.822 0 0
-159.435 -88.1654 720.076 0 0
-86.1657 -124.496 1016.8 0 0
-268.631 -99.6949 832.833 0 0
-190.46 -89.6845 749.208 0 0
-116.303 -118.443 989.451 0 0
-50.9877 -124.036 1036.18 0 0
-223.744 -91.1861 779.554 0 0
-157.032 -83.9965 718.089 0 0
-83.9104 -119.685 1023.19 0 0
-268.832 -96.027 840.581 0 0
-188.152 -85.4706 748.174 0 0
-221.483 -86.8733 779.095 0 0
-154.428 -79.74 715.122 0 0
-81.3362 -114.404 1026 0 0
-269.547 -92.4652 850.083 0 0
-185.116 -80.9472 744.191 0 0
-122.973 -74.1412 681.621 0 0
-218.916 -82.4495 777.543 0 0
-151.8 -75.4957 711.965 0 0
-78.7838 -109.144 1029.29 0 0
-275.297 -90.471 875.764 0 0
-181.997 -76.4233 739.782 0 0
-120.694 -70.1733 679.282 0 0
-217.002 -78.2749 778.3 0 0
-149.305 -71.341 709.355 0 0
-76.2179 -103.855 1032.65 0 0
-282.921 -88.8286 907.913 0 0
-179.385 -72.1416 737.356 0 0
-117.545 -65.737 671.894 0 0
-214.753 -73.978 777.857 0 0
-147.169 -67.3727 708.404 0 0
-73.775 -98.7177 1037.99 0 0
-231.888 -69.3458 750.729 0 0
-177.209 -68.049 736.689 0 0
-114.343 -61.3316 663.967 0 0
-211.918 -69.4932 775.266 0 0
-145.03 -63.4116 707.419 0 0
-70.714 -92.7497 1034.71 0 0
-175.54 -64.1475 738.138 0 0
-111.355 -57.1001 657.044 0 0
-211.721 -65.8527 782.368 0 0
-142.754 -59.4019 705.728 0 0
-68.2335 -87.5394 1040.02 0 0
-237.589 -63.7695 783.046 0 0
-173.987 -60.2734 740.117 0 0
-108.332 -52.9088 649.685 0 0
-212.62 -62.4682 793.708 0 0
-141.693 -55.8861 710.077 0 0
-65.0203 -81.3901 1034.13 0 0
-173.992 -56.8903 748.845 0 0
-105.539 -48.8861 643.486 0 0
-217.395 -60.0471 819.897 0 0
-145.347 -54.0861 738.504 0 0
-61.4156 -74.7892 1021.19 0 0
-179.408 -55.0881 781.347 0 0
-102.403 -44.7662 634.946 0 0
-159.666 -55.7538 822.685 0 0
-99.7465 -40.9173 629.138 0 0
-138.332 -45.0418 722.939 0 0
-97.4055 -37.2403 625.151 0 0
-125.833 -37.9188 667.153 0 0
-95.7278 -33.8337 625.353 0 0
-112.682 -31.1409 606.21 0 0
-70.2635 -30.7072 597.767 0 0
-93.6196 -30.286 622.701 0 0
-108.147 -27.1057 590.499 0 0
-68.7453 -27.4856 598.776 0 0
-92.5795 -27.0754 627.186 0 0
-103.312 -23.1555 572.643 0 0
-67.6549 -24.4093 603.649 0 0
-27.246 -25.1877 622.899 0 0
-95.6789 -24.8993 660.412 0 0
-102.314 -20.1366 575.836 0 0
-66.7601 -21.3508 610.557 0 0
-102.126 -17.2224 583.762 0 0
-65.6215 -18.1597 615.531 0 0
-60.9549 -14.1042 586.804 0 0
-256.613 -20.0366 1079.05 0 0
-59.9116 -10.9991 592.347 0 0
-251.718 -14.0291 1070.77 0 0
-247.84 -8.14409 1066.68 0 0
-169.326 -7.8824 1032.4 0 0
-203.528 -5.06884 1034.12 0 0
-245.581 -2.31892 1069.54 0 0
-166.435 -2.23748 1031.97 0 0
-200.47 0.583893 1032.93 0 0
-240.906 3.50263 1061.82 0 0
-163.891 3.40995 1033.72 0 0
-197.801 6.23563 1033.73 0 0
-237.476 9.28683 1059.47 0 0
-161.204 9.06893 1034.61 0 0
-261.406 11.6985 1017.35 0 0
-194.605 11.8644 1031.77 0 0
-233.225 14.9917 1053.34 0 0
-157.977 14.6879 1032 0 0
-283.155 18.8973 1113.84 0 0
-191.536 17.4822 1030.43 0 0
-229.077 20.6358 1047.54 0 0
-155.779 20.4114 1036.15 0 0
-281.541 25.1141 1119.53 0 0
-189.351 23.1928 1033.88 0 0
-227.36 26.4963 1052.85 0 0
-153.238 26.1256 1038.12 0 0
-82.3891 26.1547 1039.28 0 0
-276.208 30.9795 1110.39 0 0
-186.832 28.8923 1035.58 0 0
-116.85 29.0879 1042.59 0 0
-45.5498 29.0536 1041.36 0 0
-224.791 32.2964 1054.3 0 0
-150.885 31.9033 1041.47 0 0
-79.7737 31.9264 1042.22 0 0
-269.713 36.5806 1096.33 0 0
-183.331 34.4279 1031.81 0 0
-114.351 34.8947 1045.8 0 0
-43.3616 35.2821 1057.41 0 0
-220.565 37.8296 1047.91 0 0
-148.138 37.6221 1042.17 0 0
-77.3928 37.853 1048.56 0 0
-265.234 42.3375 1090.24 0 0
-180.948 40.1657 1034.31 0 0
-111.888 40.7562 1049.52 0 0
-292.428 44.0277 1059.2 0 0
-217.134 43.4449 1045.18 0 0
-145.487 43.3783 1043.58 0 0
-74.7588 43.7212 1051.83 0 0
-260.274 47.933 1082 0 0
-178.436 45.9013 1036.14 0 0
-109.168 46.557 1050.94 0 0
-304.596 52.41 1114.31 0 0
-215.63 49.4694 1051.79 0 0
-142.815 49.1457 1044.91 0 0
-72.3022 49.7594 1057.95 0 0
-255.938 53.5597 1076.21 0 0
-176.692 51.8851 1042.56 0 0
-106.484 52.3954 1052.81 0 0
-304.714 59.1157 1126 0 0
-212.899 55.2565 1052.5 0 0
-139.785 54.7899 1043.61 0 0
-69.5215 55.632 1059.65 0 0
-251.627 59.1214 1070.38 0 0
-174.939 57.9482 1049.14 0 0
-104.063 58.4074 1057.46 0 0
-299.287 64.763 1117.23 0 0
-209.894 60.9734 1051.86 0 0
-137.013 60.5307 1044.22 0 0
-66.7922 61.5791 1062.31 0 0
-247.804 64.7387 1066.52 0 0
-172.251 63.7501 1050.24 0 0
-101.483 64.385 1060.69 0 0
-292.313 69.933 1102.45 0 0
-207.275 66.8061 1053.16 0 0
-134.93 66.6201 1050.22 0 0
-64.3083 67.8294 1069.29 0 0
-244.075 70.3348 1062.98 0 0
-169.62 69.5901 1051.72 0 0
-98.4859 70.1141 1059.64 0 0
-286.826 75.3106 1093.02 0 0
-203.651 72.299 1049.32 0 0
-132.911 72.8285 1057 0 0
-61.7246 74.0821 1075.2 0 0
-240.262 75.8596 1058.98 0 0
-166.891 75.4055 1052.64 0 0
-95.4475 75.7944 1058.07 0 0
-282.09 80.7853 1086.29 0 0
-201.037 78.1346 1050.65 0 0
-130.203 78.7168 1058.48 0 0
-58.7705 79.9394 1074.92 0 0
-236.59 81.3813 1055.51 0 0
-163.981 81.1438 1052.43 0 0
-92.5837 81.6037 1058.39 0 0
-276.615 85.9452 1076.54 0 0
-197.873 83.7544 1049.1 0 0
-127.836 84.8521 1062.85 0 0
-56.0287 86.1177 1078.7 0 0
-232.66 86.7621 1050.79 0 0
-161.534 87.1292 1055.24 0 0
-90.7247 88.3973 1070.6 0 0
-273.046 91.6204 1074.08 0 0
-194.954 89.466 1048.82 0 0
-125.446 91.0368 1067.23 0 0
-320.279 98.2378 1115.89 0 0
-230.604 92.8351 1054.52 0 0
-159.15 93.1914 1058.57 0 0
-88.5188 95.0236 1079.38 0 0
-269.704 97.3456 1072.46 0 0
-191.861 95.0878 1047.59 0 0
-122.914 97.1759 1070.59 0 0
-50.7878 99.1935 1092.82 0 0
-227.521 98.5134 1053.6 0 0
-156.394 99.0654 1059.5 0 0
-86.2595 101.74 1088.1 0 0
-265.956 102.893 1069.18 0 0
-189.363 101.01 1049.61 0 0
-120.441 103.418 1074.63 0 0
-305.719 107.465 1085.85 0 0
-224.337 104.132 1052.17 0 0
-153.059 104.558 1056.47 0 0
-83.3023 107.71 1088.32 0 0
-262.731 108.613 1067.95 0 0
-186.444 106.72 1049.33 0 0
-117.715 109.489 1076.56 0 0
-318.888 119.445 1143.72 0 0
-221.116 109.713 1050.53 0 0
-149.672 109.967 1052.96 0 0
-80.8767 114.437 1095.77 0 0
-259.403 114.271 1066.27 0 0
-183.766 112.573 1050.42 0 0
-114.819 115.422 1077.01 0 0
-314.271 125.105 1138.32 0 0
-217.484 115.054 1046.87 0 0
-146.419 115.427 1050.27 0 0
-78.0447 120.68 1098.06 0 0
-255.505 119.639 1062.18 0 0
-180.803 118.255 1049.89 0 0
-111.968 121.41 1077.9 0 0
-306.239 129.251 1120.32 0 0
-214.335 120.615 1045.47 0 0
-143.278 120.941 1048.29 0 0
-75.4001 127.285 1103.28 0 0
-251.847 125.072 1059.01 0 0
-177.864 123.946 1049.48 0 0
-108.745 126.98 1075.17 0 0
-301.047 134.425 1112.45 0 0
-211.257 126.199 1044.38 0 0
-140.333 126.6 1047.7 0 0
-72.5341 133.593 1105.57 0 0
-248.633 130.693 1057.65 0 0
-175.363 129.956 1051.68 0 0
-106.322 133.506 1080.41 0 0
-296.432 139.764 1106.58 0 0
-208.908 132.228 1046.91 0 0
-139.184 133.978 1060.77 0 0
-70.3143 141.248 1118.33 0 0
-244.335 135.694 1051.59 0 0
-171.129 134.636 1043.39 0 0
-104.573 141.036 1092.99 0 0
-290.074 144.157 1094 0 0
-205.839 137.813 1045.86 0 0
-137.426 140.949 1069.66 0 0
-67.7262 148.389 1126.12 0 0
-240.523 140.893 1047.51 0 0
-168.071 140.168 1042.12 0 0
-101.925 147.503 1096.65 0 0
-284.939 149.016 1085.83 0 0
-202.969 143.523 1045.8 0 0
-134.347 146.627 1068.42 0 0
-64.6876 154.64 1126.81 0 0
-347.344 164.686 1176.58 0 0
-237.95 146.799 1048.79 0 0
-165.793 146.37 1045.72 0 0
-98.6869 153.125 1093.98 0 0
-278.687 153.148 1073.19 0 0
-200.083 149.22 1045.66 0 0
-131.452 152.497 1068.62 0 0
-63.0398 164.538 1153 0 0
-314.436 156.353 1075.06 0 0
-234.108 151.9 1044.44 0 0
-162.895 152.049 1045.46 0 0
-95.3033 158.452 1089.48 0 0
-275.678 158.971 1072.89 0 0
-196.258 154.177 1040.54 0 0
-127.963 157.639 1063.9 0 0
-60.5812 172.818 1166.35 0 0
-230.516 157.107 1041.11 0 0
-159.11 156.851 1039.41 0 0
-93.0845 165.76 1098.44 0 0
-271.457 164.058 1067.82 0 0
-192.57 159.167 1035.99 0 0
-125.262 163.726 1065.67 0 0
-58.0397 181.214 1179.49 0 0
-311.328 169.617 1084.71 0 0
-227.62 162.764 1040.88 0 0
-156.664 162.944 1042.03 0 0
-91.1502 173.801 1111.47 0 0
-267.956 169.527 1065.51 0 0
-189.549 164.667 1034.96 0 0
-122.419 169.649 1066.28 0 0
-55.2248 189.063 1188.29 0 0
-312.885 178.12 1100.61 0 0
-224.746 168.432 1040.75 0 0
-153.447 168.236 1039.53 0 0
-88.4532 180.574 1115.77 0 0
-264.603 175.061 1063.74 0 0
-186.515 170.138 1033.83 0 0
-119.505 175.479 1066.28 0 0
-52.2559 196.609 1194.68 0 0
-313.875 186.513 1114.81 0 0
-220.729 173.202 1035.25 0 0
-151.377 174.81 1044.86 0 0
-85.8169 187.578 1121.18 0 0
-260.397 179.979 1058.46 0 0
-184.161 176.242 1036.49 0 0
-116.572 181.279 1066.11 0 0
-49.4094 204.878 1204.9 0 0
-311.118 192.788 1115.85 0 0
-217.596 178.612 1033.81 0 0
-148.226 180.163 1042.78 0 0
-83.0159 194.324 1124.75 0 0
-255.829 184.557 1051.58 0 0
-181.16 181.739 1035.52 0 0
-113.687 187.155 1066.38 0 0
-46.5127 213.285 1215.26 0 0
-307.338 198.417 1113.21 0 0
-214.429 183.972 1032.17 0 0
-145.428 185.932 1043.17 0 0
-80.2268 201.189 1128.76 0 0
-252.533 189.989 1049.82 0 0
-178.204 187.269 1034.8 0 0
-110.997 193.377 1068.55 0 0
-43.6041 222.032 1226.89 0 0
-301.652 202.726 1103.54 0 0
-211.277 189.318 1030.55 0 0
-142.531 191.574 1042.83 0 0
-77.9355 209.494 1140.38 0 0
-249.022 195.225 1047.13 0 0
-175.701 193.283 1036.71 0 0
-108.098 199.259 1068.76 0 0
-40.626 230.873 1238.33 0 0
-294.168 205.636 1087.03 0 0
-208.543 195.029 1030.96 0 0
-139.747 197.368 1043.33 0 0
-75.3692 217.317 1148.78 0 0
-245.481 200.396 1044.24 0 0
-172.539 198.574 1034.75 0 0
-105.523 205.778 1072.29 0 0
-37.4624 239.056 1245.69 0 0
-288.356 209.515 1076.43 0 0
-205.229 200.182 1028.48 0 0
-136.973 203.187 1043.92 0 0
-73.2688 226.816 1165.32 0 0
-242.515 206.01 1043.76 0 0
-169.636 204.141 1034.29 0 0
-103.014 212.51 1076.7 0 0
-34.2053 246.934 1251.11 0 0
-284.926 215.032 1074.59 0 0
-202.114 205.495 1026.93 0 0
-134.122 208.898 1043.94 0 0
-73.4062 244.242 1220.56 0 0
-239.217 211.322 1041.82 0 0
-166.562 209.485 1032.76 0 0
-100.598 219.548 1082.37 0 0
-30.8427 254.245 1253.43 0 0
-279.869 219.246 1066.51 0 0
-199.364 211.17 1027.23 0 0
-130.975 214.125 1041.6 0 0
-70.9582 254.095 1236.04 0 0
-317.656 224.14 1076.01 0 0
-235.957 216.639 1040 0 0
-164.087 215.587 1034.96 0 0
-98.2873 226.96 1089.55 0 0
-27.4416 261.336 1254.58 0 0
-276.779 224.934 1065.84 0 0
-196.479 216.7 1026.82 0 0
-128.315 220.14 1043.12 0 0
-67.5844 260.871 1236.12 0 0
-307.999 225.114 1053.05 0 0
-232.014 221.275 1035.1 0 0
-161.039 220.946 1033.55 0 0
-95.7354 233.958 1094.42 0 0
-24.0648 268.78 1257.32 0 0
-272.585 229.682 1060.86 0 0
-193.832 222.498 1027.68 0 0
-125.598 226.085 1044.24 0 0
-64.313 268.077 1238.19 0 0
-315.553 238.764 1089.05 0 0
-228.937 226.69 1033.98 0 0
-157.934 226.194 1031.72 0 0
-93.3725 241.568 1101.84 0 0
-20.6764 276.3 1260.27 0 0
-268.897 234.793 1057.75 0 0
-190.728 227.764 1026.09 0 0
-122.839 231.973 1045.05 0 0
-61.0993 275.617 1241.67 0 0
-330.021 258.376 1149.84 0 0
-225.906 232.132 1033.04 0 0
-154.962 231.608 1030.71 0 0
-91.299 250.162 1113.28 0 0
-265.516 240.133 1055.81 0 0
-188.142 233.644 1027.28 0 0
-120.245 238.207 1047.34 0 0
-57.8527 283.126 1244.84 0 0
-307.094 248.643 1080.24 0 0
-223.27 237.979 1033.91 0 0
-152.727 238.152 1034.66 0 0
-90.8166 263.684 1145.59 0 0
-262.329 245.623 1054.6 0 0
-185.826 239.896 1030.01 0 0
-117.546 244.274 1048.8 0 0
-54.5649 290.543 1247.46 0 0
-304.578 254.914 1081.79 0 0
-220.387 243.569 1033.65 0 0
-149.602 243.324 1032.61 0 0
-93.2104 286.956 1217.77 0 0
-258.924 250.882 1052.47 0 0
-182.805 245.251 1028.85 0 0
-114.785 250.237 1049.77 0 0
-51.3759 298.647 1252.85 0 0
-307.294 265.734 1102.14 0 0
-217.732 249.415 1034.45 0 0
-146.86 249.107 1033.18 0 0
-92.0447 300.679 1247.08 0 0
-255.509 256.097 1050.26 0 0
-180.056 250.964 1029.21 0 0
-111.914 255.973 1049.76 0 0
-47.9993 305.802 1254.1 0 0
-305.918 273.221 1108.07 0 0
-214.272 254.32 1031.41 0 0
-143.955 254.611 1032.59 0 0
-88.9697 308.655 1251.77 0 0
-252.001 261.178 1047.61 0 0
-177.697 257.249 1031.85 0 0
-109.464 262.72 1053.8 0 0
-44.776 314.094 1259.86 0 0
-298.279 275.027 1091.2 0 0
-211.638 260.185 1032.31 0 0
-141.522 260.976 1035.45 0 0
-85.9078 316.825 1257.04 0 0
-249.056 266.818 1047.27 0 0
-174.419 262.202 1029.15 0 0
-107.221 270.085 1060.1 0 0
-41.3942 321.462 1261.75 0 0
-293.967 279.729 1086.29 0 0
-209.072 266.154 1033.58 0 0
-138.318 265.918 1032.66 0 0
-82.6358 324.34 1259.54 0 0
-245.459 271.73 1044.15 0 0
-171.4 267.506 1027.91 0 0
-104.584 276.57 1062.74 0 0
-38.0427 329.202 1264.99 0 0
-289.411 284.11 1080.37 0 0
-206.366 271.962 1034.17 0 0
-135.499 271.569 1032.68 0 0
-79.5048 332.53 1264.5 0 0
-242.51 277.33 1043.74 0 0
-168.749 273.383 1028.88 0 0
-102.447 284.512 1070.77 0 0
-34.6496 336.746 1267.35 0 0
-285.161 288.703 1075.48 0 0
-203.322 277.32 1033.07 0 0
-133.466 278.866 1038.83 0 0
-76.4332 341.161 1270.89 0 0
-239.528 282.883 1043.17 0 0
-166.251 279.537 1030.84 0 0
-100.346 292.776 1079.66 0 0
-31.3471 345.457 1273.93 0 0
-280.912 293.215 1070.49 0 0
-200.499 282.969 1033.08 0 0
-73.4087 350.253 1278.72 0 0
-236.345 288.182 1041.71 0 0
-163.525 285.333 1031.41 0 0
-98.7349 302.788 1094.51 0 0
-27.9767 353.836 1279.04 0 0
-277.015 298.023 1066.75 0 0
-197.782 288.773 1033.64 0 0
-70.09 358.146 1281.95 0 0
-233.129 293.413 1040.07 0 0
-160.922 291.362 1032.8 0 0
-99.1565 319.78 1133.53 0 0
-24.548 361.823 1282.57 0 0
-273.555 303.251 1064.63 0 0
-194.841 294.248 1033.02 0 0
-66.7504 366.056 1285.12 0 0
-229.998 298.725 1038.77 0 0
-21.0634 369.205 1283.85 0 0
-269.29 307.524 1059.3 0 0
-191.971 299.823 1032.77 0 0
-63.6151 375.309 1292.79 0 0
-334.441 341.464 1165.24 0 0
-227.85 305.331 1041.93 0 0
-17.5987 377.181 1287.12 0 0
-266.15 313.028 1058.33 0 0
-189.241 305.62 1033.28 0 0
-60.2707 383.582 1296.87 0 0
-339.448 356.436 1194.05 0 0
-224.99 311.009 1041.87 0 0
-14.1144 385.143 1290.22 0 0
-263.099 318.622 1057.69 0 0
-186.342 311.145 1032.87 0 0
-56.9457 392.186 1301.89 0 0
-322.783 348.495 1146.45 0 0
-222.211 316.805 1042.2 0 0
-10.6005 392.674 1291.79 0 0
-259.04 322.948 1052.94 0 0
-183.42 316.62 1032.31 0 0
-53.5286 400.362 1305.35 0 0
-311.789 346.038 1118.26 0 0
-219.032 322.016 1040.63 0 0
-7.09424 401.136 1296.32 0 0
-256.045 328.555 1052.47 0 0
-180.547 322.173 1032.02 0 0
-50.063 408.334 1308.02 0 0
-303.161 345.796 1098.08 0 0
-216.578 328.297 1042.51 0 0
-252.718 333.715 1050.6 0 0
-177.554 327.497 1031.02 0 0
-46.702 417.401 1314.06 0 0
-290.017 339.912 1060.98 0 0
-213.636 333.852 1042.06 0 0
-249.843 339.453 1050.58 0 0
-174.849 333.349 1031.69 0 0
-43.2634 426.094 1318.73 0 0
-298.94 359.949 1104.67 0 0
-210.697 339.403 1041.61 0 0
-247.345 345.719 1052.17 0 0
-171.816 338.57 1030.41 0 0
-39.6816 433.554 1319.49 0 0
-279.099 345.184 1041.87 0 0
-207.421 344.384 1039.46 0 0
-244.223 351.118 1051.11 0 0
-169.172 344.553 1031.46 0 0
-36.2394 442.777 1325.51 0 0
-279.161 354.575 1052.85 0 0
-204.482 349.9 1038.97 0 0
-241.041 356.407 1049.77 0 0
-32.6699 450.764 1327.69 0 0
-282.996 369.085 1078.43 0 0
-201.774 355.813 1039.65 0 0
-237.768 361.532 1047.99 0 0
-29.1397 459.582 1332.21 0 0
-285.042 381.669 1097.66 0 0
-198.801 361.258 1038.96 0 0
-234.363 366.417 1045.58 0 0
-25.4467 465.923 1329.52 0 0
-280.012 384.879 1089.76 0 0
-195.603 366.268 1037.06 0 0
-231.404 371.97 1045.12 0 0
-21.8493 473.987 1331.76 0 0
-274.659 387.487 1080.42 0 0
-192.671 371.749 1036.54 0 0
-228.337 377.336 1044.16 0 0
-270.254 391.292 1074.65 0 0
-189.439 376.624 1034.36 0 0
-225.659 383.344 1044.98 0 0
-266.839 396.457 1072.73 0 0
-186.938 382.946 1036.17 0 0
-222.102 387.834 1041.69 0 0
-262.704 400.488 1067.84 0 0
-183.838 388.047 1034.67 0 0
-219.644 394.227 1043.54 0 0
-146.996 390.673 1034.13 0 0
-258.797 404.781 1063.78 0 0
-180.782 393.208 1033.36 0 0
-114.004 406.905 1069.36 0 0
-216.628 399.63 1042.75 0 0
-144.419 397.013 1035.92 0 0
-255.189 409.473 1060.87 0 0
-177.757 398.408 1032.2 0 0
-111.799 415.418 1076.27 0 0
-213.875 405.514 1043.22 0 0
-141.716 403.042 1036.86 0 0
-251.611 414.156 1058.01 0 0
-174.463 402.958 1029.41 0 0
-284.244 414.031 1050.36 0 0
-210.164 409.544 1038.98 0 0
-139.397 410.226 1040.71 0 0
-248.763 420.014 1058.2 0 0
-171.706 408.721 1029.75 0 0
-109.294 440.815 1110.61 0 0
-206.881 414.337 1036.76 0 0
-137.139 417.702 1045.18 0 0
-245.279 424.775 1055.66 0 0
-391.251 475.288 1173.22 0 0
-204.313 420.551 1038.11 0 0
-241.681 429.28 1052.55 0 0
-274.082 428.835 1044.46 0 0
-201.38 426.024 1037.61 0 0
-238.36 434.225 1050.6 0 0
-163.691 426.729 1032.46 0 0
-287.099 459.973 1105.58 0 0
-198.282 431.128 1036.25 0 0
-235.183 439.399 1049.24 0 0
-161.293 433.513 1035.18 0 0
-275.01 451.143 1070.29 0 0
-195.182 436.195 1034.83 0 0
-231.75 444.053 1046.69 0 0
-158.712 439.861 1036.8 0 0
-266.871 448.239 1049.79 0 0
-192.253 441.621 1034.29 0 0
-228.761 449.522 1046.1 0 0
-156.034 445.976 1037.84 0 0
-268.239 461.264 1066.64 0 0
-189.239 446.836 1033.27 0 0
-225.042 453.51 1042.12 0 0
-153.912 453.758 1042.69 0 0
-275.081 484.272 1105.86 0 0
-186.11 451.745 1031.58 0 0
-222.116 459.047 1041.75 0 0
-151.387 460.447 1044.93 0 0
-266.869 480.966 1084.77 0 0
-183.596 458.146 1033.3 0 0
-219.754 465.771 1044.06 0 0
-149.053 467.798 1048.6 0 0
-268.738 495.815 1104.64 0 0
-180.96 464.28 1034.38 0 0
-295.645 483.58 1070.86 0 0
-216.349 470.28 1041.41 0 0
-146.465 474.433 1050.6 0 0
-257 485.387 1068.39 0 0
-178.105 469.862 1034.22 0 0
-213.353 475.64 1040.68 0 0
-143.616 480.25 1050.76 0 0
-331.163 497.347 1081.7 0 0
-252.983 489.108 1063.78 0 0
-176.18 477.963 1039.54 0 0
-301.187 514.765 1112.97 0 0
-210.274 480.794 1039.52 0 0
-249.06 492.915 1059.47 0 0
-329.492 575.613 1229.99 0 0
-206.949 485.343 1037.1 0 0
-138.167 492.795 1053.02 0 0
-247.146 500.697 1063.69 0 0
-204.749 492.539 1040.32 0 0
-243.383 504.736 1059.96 0 0
-201.18 496.437 1036.59 0 0
-239.746 508.963 1056.71 0 0
-198.924 503.567 1039.61 0 0
-234.076 508.693 1044.3 0 0
-163.312 510.565 1048.14 0 0
-196.184 509.514 1040.14 0 0
-230.898 513.682 1042.83 0 0
-160.352 515.99 1047.52 0 0
-227.869 518.978 1042.02 0 0
-157.456 521.607 1047.3 0 0
-279.156 555.893 1110.05 0 0
-225.538 525.879 1044.41 0 0
-276.552 562.837 1111.78 0 0
-222.155 530.33 1041.94 0 0
-272.642 567.103 1108.24 0 0
-220.261 538.358 1046.47 0 0
-261.714 556.37 1075.77 0 0
-217.464 544.237 1046.78 0 0
-146.929 547.955 1053.93 0 0
-255.002 554.057 1060.09 0 0
-214.178 548.87 1044.7 0 0
-146.094 561.581 1068.9 0 0
-251.647 558.836 1058.17 0 0
-211.975 556.296 1047.93 0 0
-144.718 573.552 1080.44 0 0
-248.274 563.531 1056.12 0 0
-208.473 560.311 1044.74 0 0
-143.795 587.757 1095.91 0 0
-244.576 567.421 1052.63 0 0
-240.787 571.014 1048.66 0 0
-169.746 573.106 1052.5 0 0
-287.007 598.537 1093.71 0 0
-237.016 574.555 1044.67 0 0
-169.455 587.832 1068.81 0 0
-280.516 597.063 1080.23 0 0
-200.105 578.019 1045.77 0 0
-233.97 579.793 1043.82 0 0
-165.523 590.073 1062.33 0 0
-275.561 598.618 1072.44 0 0
-198.675 587.963 1053.35 0 0
-232.531 589.082 1050.21 0 0
-271.4 601.755 1067.6 0 0
-196.232 595.045 1055.7 0 0
-229.034 593.201 1047.34 0 0
-266.849 603.896 1061.11 0 0
-224.958 595.715 1041.73 0 0
-263.014 607.539 1057.35 0 0
-190.137 605.558 1053.9 0 0
-222.425 602.262 1043.2 0 0
-257.676 607.549 1047.4 0 0
-186.85 609.994 1051.62 0 0
-304.084 635.603 1090.63 0 0
-219.221 606.989 1041.53 0 0
-255.244 614.31 1049.17 0 0
-304.738 649.311 1103.79 0 0
-252.865 621.249 1051.21 0 0
-297.324 645.794 1087.71 0 0
-251.619 631.077 1058.05 0 0
-292.542 647.737 1081.03 0 0
-246.71 631.697 1049.47 0 0
-287.803 649.62 1074.37 0 0
-242.653 634.328 1044.36 0 0
