ply
format ascii 1.0
element vertex 1567
property float x
property float y
property float z
property float u
property float v
end_header
-248.281 -593.474 1081.3 0 0
-301.041 -626.508 1147.2 0 0
-246.225 -589.718 1085.26 0 0
-286.201 -595.868 1102.12 0 0
-242.563 -582.115 1082.16 0 0
-283.271 -590.014 1102.44 0 0
-239.671 -576.359 1082.46 0 0
-277.509 -578.26 1091.63 0 0
-237.206 -571.632 1084.72 0 0
-55.8156 -629.631 1201.01 0 0
-234.372 -566.018 1085.32 0 0
-267.349 -557.581 1074.78 0 0
-51.8205 -614.618 1184.72 0 0
-231.872 -561.213 1087.51 0 0
-89.5451 -603.723 1169.88 0 0
-263.069 -548.905 1069.32 0 0
-47.9125 -599.758 1168.39 0 0
-228.065 -553.244 1083.55 0 0
-87.7127 -606.773 1188.38 0 0
-260.034 -542.824 1068.86 0 0
-130.817 -623.17 1227.07 0 0
-44.7581 -593.893 1169.42 0 0
-225.329 -547.87 1084.63 0 0
-83.2658 -591.758 1171.52 0 0
-255.435 -533.478 1061.89 0 0
-125.582 -607.362 1208.96 0 0
-41.3659 -584.733 1163.91 0 0
-223.378 -544.41 1089.58 0 0
-79.7776 -583.263 1167.34 0 0
-253.083 -528.823 1064.2 0 0
-122.155 -600.155 1207.75 0 0
-37.9754 -575.205 1157.54 0 0
-221.349 -540.774 1094.27 0 0
-75.8542 -571.364 1156.17 0 0
-251.41 -525.59 1069.46 0 0
-116.82 -583.396 1187.09 0 0
-297.29 -542.371 1109.78 0 0
-218.551 -535.265 1095.24 0 0
-72.1733 -560.997 1147.89 0 0
-248.028 -518.783 1067.49 0 0
-112.367 -570.767 1174.45 0 0
-284.8 -519.067 1074.11 0 0
-216.521 -531.644 1100.14 0 0
-68.7576 -552.487 1143.27 0 0
-244.583 -511.845 1065.19 0 0
-108.289 -559.859 1165.11 0 0
-283.688 -516.517 1081.06 0 0
-212.934 -524.201 1097.15 0 0
-145.737 -553.753 1159 0 0
-65.4094 -544.38 1139.38 0 0
-241.757 -506.2 1065.57 0 0
-104.528 -550.457 1158.73 0 0
-279.953 -509.189 1078.06 0 0
-211.717 -522.602 1106.46 0 0
-146.596 -562.881 1191.74 0 0
-62.1014 -536.479 1135.84 0 0
-239.296 -501.321 1067.58 0 0
-100.931 -541.818 1153.82 0 0
-279.401 -507.647 1087.38 0 0
-209.148 -517.68 1108.88 0 0
-141.934 -550.913 1180.06 0 0
-59.0352 -530.615 1136.58 0 0
-236.551 -495.848 1068.37 0 0
-97.4412 -533.669 1149.86 0 0
-272.083 -493.813 1070.29 0 0
-206.948 -513.681 1113.35 0 0
-137.728 -540.615 1171.72 0 0
-55.9816 -524.9 1137.66 0 0
-234.818 -492.497 1073.79 0 0
-93.5705 -523.313 1140.98 0 0
-268.092 -486.032 1066.05 0 0
-205.136 -510.66 1120.07 0 0
-133.411 -529.783 1162.01 0 0
-52.9109 -519.064 1138.5 0 0
-231.423 -485.662 1071.66 0 0
-90.5815 -517.818 1142.62 0 0
-266.65 -482.869 1071.97 0 0
-202.321 -505.153 1121.44 0 0
-128.978 -518.38 1150.8 0 0
-49.9545 -514.442 1142.06 0 0
-229.257 -481.406 1075.25 0 0
-173.532 -536.269 1197.78 0 0
-87.0776 -509.344 1137.65 0 0
-262.304 -474.448 1066.21 0 0
-200.723 -502.697 1129.7 0 0
-125.571 -511.024 1148.41 0 0
-46.9182 -509.126 1144.14 0 0
-226.991 -476.943 1078.44 0 0
-169.545 -527.501 1192.77 0 0
-83.6541 -501.245 1133.4 0 0
-259.754 -469.278 1067.71 0 0
-122.171 -503.673 1145.97 0 0
-43.5064 -499.606 1136.72 0 0
-224.841 -472.725 1082.29 0 0
-168.094 -526.651 1205.75 0 0
-80.2074 -492.906 1128.49 0 0
-256.359 -462.58 1065.73 0 0
-119.109 -497.7 1146.64 0 0
-40.2266 -491.283 1131.86 0 0
-221.985 -467.023 1082.78 0 0
-158.62 -500.561 1160.54 0 0
-76.8217 -484.837 1124.09 0 0
-254.448 -458.56 1069.94 0 0
-115.991 -491.502 1146.81 0 0
-36.9602 -482.841 1126.6 0 0
-219.437 -461.971 1084.82 0 0
-156.011 -496.007 1164.75 0 0
-73.8517 -479.358 1125.65 0 0
-251.652 -452.942 1070.49 0 0
-112.611 -484.18 1144.32 0 0
-302.794 -475.169 1130.32 0 0
-217.174 -457.519 1088.34 0 0
-151.997 -486.98 1158.42 0 0
-70.8709 -473.846 1127.18 0 0
-249.03 -447.638 1071.8 0 0
-109.049 -476.025 1139.77 0 0
-292.176 -457.21 1101.93 0 0
-215.157 -453.59 1093.21 0 0
-147.612 -476.714 1148.94 0 0
-67.9403 -468.722 1129.68 0 0
-246.082 -441.744 1071.72 0 0
-188.231 -481.066 1167.12 0 0
-105.569 -468.179 1135.85 0 0
-287.529 -448.635 1095.7 0 0
-212.805 -448.954 1096.48 0 0
-145.509 -473.811 1157.19 0 0
-64.8337 -462.413 1129.35 0 0
-243.487 -436.485 1073.19 0 0
-186.855 -479.342 1178.57 0 0
-102.334 -461.381 1134.41 0 0
-283.027 -440.301 1089.9 0 0
-210.583 -444.598 1100.54 0 0
-141.196 -463.707 1147.84 0 0
-61.7453 -456.229 1129.33 0 0
-240.768 -431.003 1074.15 0 0
-182.175 -469.142 1169.2 0 0
-99.09 -454.524 1132.77 0 0
-278.124 -431.358 1082.41 0 0
-208.162 -439.821 1103.65 0 0
-137.84 -456.708 1146.02 0 0
-58.7503 -450.76 1131.1 0 0
-238.563 -426.436 1077.45 0 0
-178.029 -460.292 1162.99 0 0
-96.0092 -448.405 1132.96 0 0
-275.843 -426.488 1085.08 0 0
-206.01 -435.615 1108.3 0 0
-134.769 -450.649 1146.55 0 0
-235.72 -420.729 1077.92 0 0
-172.434 -447.663 1146.93 0 0
-92.7287 -441.337 1130.72 0 0
-15.9411 -455.065 1165.89 0 0
-271.87 -419.005 1081.07 0 0
-203.692 -431.063 1112.18 0 0
-132.311 -446.662 1152.43 0 0
-52.4378 -437.318 1128.32 0 0
-233.453 -416.047 1081.07 0 0
-168.428 -439.123 1141.03 0 0
-89.6213 -435.074 1130.51 0 0
-12.7939 -450.088 1169.52 0 0
-269.634 -414.2 1083.97 0 0
-201.196 -426.135 1115.2 0 0
-128.375 -437.685 1145.43 0 0
-49.4437 -431.936 1130.38 0 0
-230.667 -410.437 1081.86 0 0
-165.472 -433.311 1142.15 0 0
-86.6856 -429.66 1132.53 0 0
-9.66739 -446.942 1178.08 0 0
-266.469 -407.964 1083.14 0 0
-198.989 -421.822 1119.94 0 0
-125.999 -434.023 1152.33 0 0
-46.3243 -425.485 1129.66 0 0
-227.894 -404.85 1082.73 0 0
-163.337 -429.663 1149.09 0 0
-83.586 -423.448 1132.47 0 0
-263.651 -402.261 1083.73 0 0
-196.488 -416.888 1123.14 0 0
-122.987 -428.201 1153.62 0 0
-43.2093 -419.046 1128.95 0 0
-225.559 -400.039 1085.74 0 0
-159.581 -421.757 1144.69 0 0
-80.2722 -416.126 1129.4 0 0
-260.786 -396.484 1084.13 0 0
-194.369 -412.768 1128.66 0 0
-119.403 -420.38 1149.48 0 0
-40.182 -413.478 1130.6 0 0
-223.131 -395.059 1088.37 0 0
-156.022 -414.356 1141.54 0 0
-77.4395 -411.303 1133.13 0 0
-258.177 -391.093 1085.62 0 0
-191.736 -407.559 1131.33 0 0
-116.568 -415.188 1152.51 0 0
-37.213 -408.63 1134.3 0 0
-220.718 -390.103 1091.15 0 0
-152.854 -407.988 1141.18 0 0
-74.3254 -405.017 1132.87 0 0
-255.338 -385.353 1086.17 0 0
-188.329 -400.706 1129.45 0 0
-113.718 -409.97 1155.56 0 0
-34.4759 -406.716 1146.39 0 0
-218.017 -384.634 1092.56 0 0
-149.334 -400.674 1138.13 0 0
-71.6273 -401.055 1139.21 0 0
-252.908 -380.224 1088.49 0 0
-184.843 -393.681 1127.01 0 0
-110.721 -404.246 1157.26 0 0
-31.9499 -408.212 1168.61 0 0
-215.14 -378.854 1093.12 0 0
-145.32 -392.017 1131.1 0 0
-68.9216 -397.18 1146 0 0
-249.763 -374.02 1087.75 0 0
-180.706 -385.267 1120.46 0 0
-107.483 -397.639 1156.44 0 0
-29.3797 -410.545 1193.98 0 0
-302.109 -392.712 1151.26 0 0
-211.564 -371.844 1090.09 0 0
-141.189 -383.014 1122.83 0 0
-66.1892 -393.292 1152.96 0 0
-246.75 -368.014 1087.58 0 0
-176.672 -377.068 1114.33 0 0
-104.044 -390.276 1153.36 0 0
-27.634 -427.501 1263.37 0 0
-292.086 -377.531 1124.79 0 0
-208.871 -366.389 1091.59 0 0
-137.532 -375.271 1118.05 0 0
-63.5802 -390.32 1162.89 0 0
-244.304 -362.852 1089.93 0 0
-172.719 -369.038 1108.51 0 0
-100.158 -381.179 1144.98 0 0
-24.6639 -428.999 1288.62 0 0
-286.381 -368.001 1114.55 0 0
-205.778 -360.229 1091.01 0 0
-133.759 -367.19 1112.09 0 0
-60.9878 -387.689 1174.18 0 0
-242.025 -357.928 1093.09 0 0
-168.871 -361.23 1103.17 0 0
-96.0827 -371.267 1133.82 0 0
-21.3265 -425.646 1299.89 0 0
-282.161 -360.409 1109.93 0 0
-202.296 -353.392 1088.32 0 0
-130.335 -360.05 1108.83 0 0
-58.4585 -385.759 1188 0 0
-238.719 -351.485 1091.64 0 0
-165.102 -353.585 1098.16 0 0
-92.7221 -364.042 1130.64 0 0
-17.8519 -420.39 1305.64 0 0
-278.786 -353.909 1108.58 0 0
-199.275 -347.362 1088.07 0 0
-126.653 -352.177 1103.15 0 0
-55.5779 -381.784 1195.89 0 0
-235.795 -345.605 1091.91 0 0
-161.672 -346.663 1095.26 0 0
-89.4659 -357.2 1128.55 0 0
-275.899 -348.029 1109.15 0 0
-196.308 -341.425 1088.11 0 0
-122.214 -342.16 1090.45 0 0
-52.8308 -378.989 1207.82 0 0
-232.92 -339.795 1092.43 0 0
-158.773 -340.878 1095.91 0 0
-85.5919 -347.823 1118.24 0 0
-272.565 -341.586 1107.92 0 0
-192.562 -334.138 1083.76 0 0
-117.968 -332.633 1078.88 0 0
-51.0613 -383.904 1245.18 0 0
-229.642 -333.398 1091.04 0 0
-155.428 -334.137 1093.45 0 0
-83.6434 -346.298 1133.25 0 0
-269.814 -335.874 1109.06 0 0
-189.68 -328.353 1084.22 0 0
-114.378 -324.913 1072.87 0 0
-47.7742 -378.019 1248.22 0 0
-225.975 -326.446 1087.74 0 0
-151.613 -326.381 1087.53 0 0
-82.1716 -346.968 1156.13 0 0
-267.117 -330.225 1110.45 0 0
-186.354 -321.799 1082.12 0 0
-111.041 -317.89 1068.97 0 0
-43.9133 -367.438 1235.59 0 0
-222.365 -319.583 1084.64 0 0
-148.256 -319.605 1084.71 0 0
-79.3109 -341.938 1160.51 0 0
-263.692 -323.676 1108.81 0 0
-183.164 -315.483 1080.75 0 0
-107.636 -310.653 1064.2 0 0
-40.1642 -357.376 1224.26 0 0
-218.809 -312.809 1081.71 0 0
-144.08 -311.062 1075.68 0 0
-74.3754 -327.822 1133.63 0 0
-260.685 -317.644 1108.92 0 0
-179.649 -308.613 1077.39 0 0
-103.726 -301.922 1054.03 0 0
-36.5078 -347.73 1213.95 0 0
-215.209 -305.98 1078.49 0 0
-138.893 -300.324 1058.55 0 0
-68.5352 -309.254 1090.03 0 0
-256.742 -310.479 1104.99 0 0
-175.786 -301.15 1071.79 0 0
-100.289 -294.526 1048.22 0 0
-32.9518 -338.651 1205.26 0 0
-212.386 -300.261 1079.13 0 0
-135.079 -292.542 1051.38 0 0
-64.7965 -299.782 1077.41 0 0
-252.501 -302.973 1099.68 0 0
-172.106 -294.008 1067.14 0 0
-96.4532 -285.918 1037.77 0 0
-29.4331 -329.551 1196.14 0 0
-208.975 -293.713 1076.75 0 0
-131.523 -285.316 1045.96 0 0
-61.5299 -292.364 1071.8 0 0
-249.225 -296.639 1098.48 0 0
-168.507 -287.013 1062.83 0 0
-92.7156 -277.548 1027.79 0 0
-25.9979 -320.967 1188.57 0 0
-205.397 -286.941 1073.43 0 0
-127.462 -276.986 1036.19 0 0
-57.6545 -281.881 1054.51 0 0
-244.925 -289.104 1092.7 0 0
-164.362 -279.098 1054.88 0 0
-89.0243 -269.262 1017.7 0 0
-22.4491 -310.323 1172.9 0 0
-202.264 -280.796 1072.38 0 0
-123.902 -269.737 1030.14 0 0
-53.8678 -271.558 1037.1 0 0
-241.58 -282.711 1091.08 0 0
-160.14 -271.064 1046.13 0 0
-85.3866 -261.081 1007.61 0 0
-18.5605 -293.132 1131.3 0 0
-198.902 -274.339 1070.06 0 0
-119.526 -260.701 1016.86 0 0
-50.0192 -260.606 1016.49 0 0
-238.224 -276.312 1089.37 0 0
-155.422 -262.211 1033.77 0 0
-83.0977 -257.012 1013.28 0 0
-15.116 -280.415 1105.55 0 0
-194.959 -267.095 1064.5 0 0
-115.869 -253.225 1009.22 0 0
-47.0023 -253.762 1011.37 0 0
-234.704 -269.734 1086.86 0 0
-152 -255.556 1029.73 0 0
-79.0586 -247.499 997.266 0 0
-11.9129 -270.26 1088.98 0 0
-191.065 -259.937 1059.05 0 0
-112.702 -246.814 1005.58 0 0
-43.7905 -245.723 1001.14 0 0
-231.58 -263.618 1086.14 0 0
-148.606 -248.956 1025.74 0 0
-76.2127 -241.666 995.699 0 0
-8.79773 -260.21 1072.1 0 0
-187.129 -252.74 1053.18 0 0
-109.687 -240.732 1003.15 0 0
-41.2271 -241.263 1005.36 0 0
-228.017 -257.011 1083.32 0 0
-144.69 -241.492 1017.91 0 0
-73.3433 -235.748 993.699 0 0
-5.84737 -253.489 1068.48 0 0
-183.604 -246.116 1049.49 0 0
-106.144 -233.486 995.632 0 0
-38.468 -235.7 1005.07 0 0
-223.981 -249.888 1078.14 0 0
-141.255 -234.842 1013.23 0 0
-70.3626 -229.453 989.977 0 0
-2.90705 -245.98 1061.28 0 0
-177.507 -236.085 1030.75 0 0
-103.356 -227.896 994.992 0 0
-35.8157 -230.817 1007.75 0 0
-220.536 -243.445 1075.72 0 0
-137.878 -228.297 1008.78 0 0
-67.455 -223.374 987.028 0 0
-0.00608245 -239.152 1056.75 0 0
-174.411 -230.083 1029.1 0 0
-100.118 -221.312 989.872 0 0
-33.0852 -225.473 1008.48 0 0
-217.084 -237.006 1073.19 0 0
-134.784 -222.227 1006.27 0 0
-64.943 -218.604 989.863 0 0
2.89116 -234.079 1059.94 0 0
-170.646 -223.212 1023.39 0 0
-97.6441 -216.413 992.225 0 0
-30.3602 -220.189 1009.53 0 0
-213.924 -230.894 1072.05 0 0
-132.41 -217.344 1009.14 0 0
-62.3721 -213.654 992.007 0 0
5.74779 -226.682 1052.49 0 0
-167.531 -217.205 1021.46 0 0
-94.8386 -210.782 991.249 0 0
-27.6887 -215.354 1012.75 0 0
-209.531 -223.473 1064.62 0 0
-129.077 -210.89 1004.67 0 0
-59.6687 -208.26 992.143 0 0
8.61159 -220.592 1050.89 0 0
-164.242 -210.982 1018.37 0 0
-92.8744 -207.024 999.268 0 0
-24.9284 -209.884 1013.08 0 0
-204.942 -215.884 1055.97 0 0
-125.953 -204.782 1001.66 0 0
-56.9554 -202.831 992.12 0 0
11.5039 -215.217 1052.71 0 0
-160.921 -204.732 1014.99 0 0
-89.8946 -201.006 996.515 0 0
-22.0829 -203.642 1009.58 0 0
-201.167 -209.188 1051.33 0 0
-122.766 -198.581 998.017 0 0
-54.2583 -197.461 992.39 0 0
14.4024 -209.768 1054.24 0 0
-157.834 -198.789 1012.98 0 0
-86.7412 -194.594 991.605 0 0
-19.3244 -198.135 1009.64 0 0
-196.669 -201.774 1042.71 0 0
-120.413 -193.727 1001.13 0 0
-51.6346 -192.367 994.101 0 0
17.2985 -204.175 1055.12 0 0
-154.846 -192.979 1011.55 0 0
-84.5989 -190.453 998.31 0 0
-16.6298 -193.373 1013.62 0 0
-193.037 -195.282 1038.51 0 0
-117.314 -187.675 998.052 0 0
-49.0835 -187.568 997.481 0 0
20.2261 -198.833 1057.39 0 0
-151.814 -187.12 1009.78 0 0
-81.2707 -183.64 991.001 0 0
-13.8947 -188.313 1016.22 0 0
-189.699 -189.107 1035.78 0 0
-114.678 -182.366 998.855 0 0
-46.4384 -182.434 999.232 0 0
-250.443 -208.57 1159.74 0 0
-148.903 -181.415 1008.75 0 0
-78.7632 -178.68 993.541 0 0
-11.07 -181.987 1011.93 0 0
-186.529 -183.113 1033.9 0 0
-111.482 -176.168 994.697 0 0
-43.625 -176.639 997.355 0 0
-233.308 -190.809 1094.25 0 0
-145.85 -175.544 1006.71 0 0
-75.822 -172.734 990.595 0 0
-8.35894 -177.623 1018.63 0 0
-183.925 -177.675 1035.15 0 0
-108.344 -170.073 990.863 0 0
-40.8693 -171.064 996.637 0 0
-230.525 -184.993 1095.24 0 0
-143.184 -170.144 1007.32 0 0
-72.7824 -166.56 986.099 0 0
-5.58412 -172.349 1020.37 0 0
-180.446 -171.399 1031.44 0 0
-105.217 -164.003 986.937 0 0
-38.1593 -165.677 997.008 0 0
-227.647 -179.097 1095.79 0 0
-140.062 -164.204 1004.67 0 0
-69.8452 -160.613 982.698 0 0
-2.79445 -166.738 1020.17 0 0
-176.794 -164.983 1026.6 0 0
-102.93 -159.243 990.887 0 0
-35.6109 -161.026 1001.99 0 0
-223.724 -172.391 1091.27 0 0
-136.963 -158.304 1002.09 0 0
-67.4409 -155.892 986.821 0 0
-0.00586078 -160.854 1018.23 0 0
-173.751 -159.154 1025.21 0 0
-100.836 -154.77 996.971 0 0
-32.7992 -155.204 999.764 0 0
-219.73 -165.663 1086.27 0 0
-133.596 -152.11 997.401 0 0
-64.4529 -149.821 982.392 0 0
2.78637 -155.789 1021.52 0 0
-170.143 -152.826 1020.38 0 0
-98.1499 -149.379 997.365 0 0
-30.0004 -149.409 997.57 0 0
-214.643 -158.164 1075.65 0 0
-131.077 -146.89 998.983 0 0
-61.9101 -144.784 984.659 0 0
5.58318 -150.327 1022.35 0 0
-167.15 -147.068 1019.13 0 0
-94.9923 -143.276 992.855 0 0
-27.2695 -143.934 997.419 0 0
-212.125 -152.587 1077.8 0 0
-128.104 -141.162 997.093 0 0
-59.3733 -139.765 987.231 0 0
8.37918 -144.763 1022.53 0 0
-163.849 -141.053 1015.94 0 0
-91.7014 -136.986 986.647 0 0
-24.5673 -138.618 998.403 0 0
-207.823 -145.745 1070.82 0 0
-124.038 -134.26 986.433 0 0
-56.5872 -134.161 985.706 0 0
11.1827 -139.279 1023.31 0 0
-161.052 -135.482 1015.81 0 0
-88.5701 -130.95 981.833 0 0
-21.8302 -133.111 998.034 0 0
-204.931 -139.914 1071 0 0
-121.759 -129.311 989.829 0 0
-54.0867 -129.235 989.251 0 0
14.0207 -134.075 1026.3 0 0
-158.179 -129.85 1015.2 0 0
-85.822 -125.488 981.097 0 0
-19.2765 -128.82 1007.14 0 0
-200.306 -132.933 1062 0 0
-119.481 -124.345 993.386 0 0
-51.0712 -123.076 983.254 0 0
16.8025 -128.285 1024.86 0 0
-155.047 -124.014 1012.87 0 0
-83.1197 -120.095 980.855 0 0
-16.3408 -121.95 996.005 0 0
-197.454 -127.16 1062.27 0 0
-116.849 -118.998 994.09 0 0
-48.2801 -117.45 981.153 0 0
19.6635 -123.055 1027.98 0 0
-150.938 -117.434 1003.94 0 0
-80.6223 -114.995 983.095 0 0
-13.6643 -116.899 999.371 0 0
-194.861 -121.547 1063.97 0 0
-113.769 -113.203 990.93 0 0
-45.7261 -112.4 983.905 0 0
22.5276 -117.718 1030.46 0 0
-147.552 -111.461 999.601 0 0
-78.1426 -109.912 985.712 0 0
-10.9198 -111.305 998.202 0 0
-189.63 -114.329 1051.09 0 0
-110.78 -107.514 988.432 0 0
-42.914 -106.716 981.101 0 0
25.2934 -111.86 1028.39 0 0
-143.368 -104.934 989.582 0 0
-75.427 -104.494 985.435 0 0
-8.20279 -105.996 999.603 0 0
-185.862 -108.063 1046.05 0 0
-106.795 -100.898 976.697 0 0
-40.2606 -101.424 981.794 0 0
28.2186 -106.67 1032.57 0 0
-140.883 -99.6796 991.129 0 0
-72.6586 -99.005 984.422 0 0
-5.47763 -100.664 1000.91 0 0
-182.719 -102.186 1044.44 0 0
-104.116 -95.5495 976.607 0 0
-37.5644 -96.0248 981.465 0 0
31.0921 -101.191 1034.27 0 0
-138.511 -94.491 993.546 0 0
-69.9341 -93.5783 983.949 0 0
-2.74678 -95.3684 1002.77 0 0
-177.297 -95.0988 1029.53 0 0
-101.479 -90.2394 976.919 0 0
-34.8618 -90.6079 980.908 0 0
34.0683 -95.9565 1038.81 0 0
-135.949 -89.1602 994.67 0 0
-66.8119 -87.6317 977.618 0 0
-0.00578139 -90.0361 1004.44 0 0
-173.325 -88.8769 1022.7 0 0
-98.904 -84.981 977.866 0 0
-32.1609 -85.1932 980.308 0 0
36.6212 -89.5765 1030.75 0 0
-133.074 -83.6244 993.505 0 0
-64.2744 -82.46 979.672 0 0
2.73196 -84.3034 1001.57 0 0
-166.121 -81.1329 996.257 0 0
-96.5621 -79.9091 981.23 0 0
-29.4503 -79.7501 979.278 0 0
39.3974 -83.8536 1029.67 0 0
-129.864 -77.8969 989.742 0 0
-61.3702 -76.821 976.072 0 0
5.46757 -78.7974 1001.18 0 0
-162.791 -75.4056 992.56 0 0
-93.9641 -74.6116 982.109 0 0
-26.6547 -74.0664 974.933 0 0
42.3984 -78.5702 1034.22 0 0
-125.725 -71.6688 978.583 0 0
-58.6911 -71.4715 975.888 0 0
8.30141 -74.1925 1013.04 0 0
-160.226 -70.044 993.476 0 0
-91.2232 -69.1997 981.502 0 0
-24.0232 -68.8323 976.29 0 0
45.31 -73.0527 1036.15 0 0
-122.379 -65.957 973.24 0 0
-56.081 -66.2042 976.888 0 0
11.0035 -68.239 1006.91 0 0
-157.403 -64.5687 992.798 0 0
-88.3414 -63.6906 979.297 0 0
-21.3651 -63.5262 976.769 0 0
48.0083 -67.2008 1033.27 0 0
-119.838 -60.6972 974.216 0 0
-53.376 -60.824 976.251 0 0
13.7986 -62.9293 1010.04 0 0
-154.866 -59.2089 993.935 0 0
-85.1285 -57.9719 973.169 0 0
-18.7075 -58.2249 977.416 0 0
51.0305 -61.7916 1037.29 0 0
-194.238 -58.5321 1029.83 0 0
-117.471 -55.5111 976.676 0 0
-50.5842 -55.3522 973.879 0 0
16.454 -57.0421 1003.61 0 0
-152.034 -53.7344 993.181 0 0
-82.4524 -52.6415 972.979 0 0
-16.0523 -52.9357 978.418 0 0
54.2958 -56.5687 1045.57 0 0
-186.856 -51.6399 1005.26 0 0
-114.974 -50.2471 978.142 0 0
-47.8126 -49.9137 971.652 0 0
19.1977 -51.5565 1003.63 0 0
-149.39 -48.3278 993.652 0 0
-79.8673 -47.3665 973.888 0 0
-13.4034 -47.6778 980.289 0 0
56.4919 -50.2639 1033.46 0 0
-184.153 -46.1555 1005.5 0 0
-112.449 -44.9593 979.44 0 0
-45.1018 -44.5476 970.471 0 0
21.9342 -46.0553 1003.32 0 0
-143.869 -42.0753 974.65 0 0
-76.9779 -41.9186 971.02 0 0
-10.7144 -42.2815 979.427 0 0
59.7146 -44.9133 1040.39 0 0
-181.065 -40.5825 1003.62 0 0
-109.767 -39.6029 979.392 0 0
-42.3293 -39.1315 967.734 0 0
24.6714 -40.5617 1003.1 0 0
-140.542 -36.5744 970.073 0 0
-74.4476 -36.6712 972.639 0 0
-8.05558 -37.0114 981.663 0 0
62.7818 -39.3657 1044.11 0 0
-178.544 -35.1396 1004.87 0 0
-106.937 -34.2 977.999 0 0
-39.7351 -33.8845 968.979 0 0
27.4098 -35.0733 1002.97 0 0
-202.262 -30.9773 960.955 0 0
-138.58 -31.4276 974.926 0 0
-71.8484 -31.3799 973.445 0 0
-5.35781 -31.5596 979.021 0 0
66.032 -33.8608 1050.41 0 0
-174.89 -29.4931 999.682 0 0
-103.874 -28.7455 974.343 0 0
-36.9354 -28.4708 965.03 0 0
30.1883 -29.6264 1004.2 0 0
-135.772 -26.0704 973.9 0 0
-68.8262 -25.9221 968.36 0 0
-2.68041 -26.1946 978.542 0 0
69.248 -28.2591 1055.66 0 0
-171.91 -23.9935 998.247 0 0
-101 -23.3701 972.31 0 0
-34.2633 -23.1719 964.067 0 0
32.9807 -24.1714 1005.65 0 0
-212.063 -22.0347 1034.39 0 0
-133.266 -20.7704 975.039 0 0
-66.0259 -20.5804 966.117 0 0
-0.00565476 -20.9282 982.442 0 0
-260.709 -20.3564 1096.27 0 0
-167.387 -18.3396 987.658 0 0
-97.9349 -17.9798 968.284 0 0
-31.6573 -17.918 964.956 0 0
35.8446 -18.7338 1008.89 0 0
-207.047 -16.2085 1023.57 0 0
-130.728 -15.4551 975.988 0 0
-63.1071 -15.2317 961.88 0 0
2.67736 -15.5432 981.553 0 0
-162.264 -12.7498 973.126 0 0
-95.327 -12.6915 968.679 0 0
-28.9503 -12.6125 962.652 0 0
38.6221 -13.2251 1009.4 0 0
-203.486 -10.5732 1019.74 0 0
-127.907 -10.1074 974.82 0 0
-60.317 -9.94667 959.322 0 0
-246.045 -8.08512 1058.95 0 0
-159.654 -7.43214 973.428 0 0
-92.8258 -7.40758 970.211 0 0
-26.2499 -7.33056 960.124 0 0
41.4949 -7.72798 1012.18 0 0
-198.993 -4.95587 1011.08 0 0
-124.727 -4.75852 970.813 0 0
-57.6597 -4.69933 958.737 0 0
8.04197 -4.81032 981.382 0 0
-157.216 -2.11354 974.813 0 0
-90.1154 -2.1022 969.583 0 0
-23.6218 -2.08138 959.978 0 0
-295.462 0.636469 1125.93 0 0
-195.542 0.569541 1007.54 0 0
-121.82 0.547641 968.796 0 0
-54.9397 0.540977 957.007 0 0
10.7078 0.553892 979.855 0 0
-155.22 3.22953 979.029 0 0
-87.3969 3.19588 968.827 0 0
-20.9878 3.16518 959.522 0 0
47.2317 3.35332 1016.55 0 0
-188.394 5.9391 984.575 0 0
-118.848 5.82804 966.165 0 0
-52.1493 5.75355 953.815 0 0
13.4348 5.9321 983.415 0 0
-218.67 8.55137 975.563 0 0
-151.985 8.55029 975.439 0 0
-84.2925 8.44662 963.612 0 0
-18.3882 8.42135 960.73 0 0
50.2646 8.95598 1021.72 0 0
-184.658 11.2579 979.035 0 0
-116.276 11.1165 966.739 0 0
-49.4997 10.9585 952.999 0 0
16.1471 11.3253 984.892 0 0
-228.621 14.6957 1032.55 0 0
-149.106 13.8631 974.051 0 0
-81.3011 13.6545 959.394 0 0
-15.7469 13.6604 959.806 0 0
53.0951 14.5519 1022.45 0 0
-181.813 16.5948 978.126 0 0
-113.644 16.4031 966.831 0 0
-46.8297 16.1461 951.678 0 0
-328.524 22.5482 1144.62 0 0
-229.514 20.6752 1049.54 0 0
-146.066 19.1388 971.545 0 0
-78.2637 18.7997 954.334 0 0
-13.1545 18.9524 962.086 0 0
55.9952 20.1794 1024.37 0 0
-181.024 22.1729 988.416 0 0
-110.694 21.6286 964.152 0 0
-44.1623 21.3168 950.256 0 0
21.5697 22.1331 986.643 0 0
-218.428 25.4553 1011.49 0 0
-143.753 24.5084 973.865 0 0
-75.8024 24.0637 956.193 0 0
-10.5535 24.2783 964.719 0 0
59.0714 25.9006 1029.18 0 0
-179.095 27.6959 992.699 0 0
-108.207 26.9363 965.471 0 0
-41.5079 26.4754 948.954 0 0
-223.408 32.0977 1047.81 0 0
-141.299 29.8763 975.296 0 0
-73.018 29.2227 953.962 0 0
-7.89911 29.4872 962.596 0 0
61.8893 31.5294 1029.26 0 0
-175.885 33.0296 989.905 0 0
-106.361 32.4565 972.727 0 0
-39.0514 31.775 952.304 0 0
-220.667 37.847 1048.4 0 0
-138.213 35.1015 972.344 0 0
-71.0693 34.7602 962.888 0 0
-5.26822 34.7516 962.651 0 0
65.1 37.3844 1035.58 0 0
-172.622 38.3176 986.719 0 0
-104.429 38.0392 979.549 0 0
-36.407 36.9392 951.224 0 0
29.8121 38.5106 991.689 0 0
-214.026 42.8232 1030.23 0 0
-135.585 40.426 972.556 0 0
-69.5637 40.6829 978.737 0 0
-2.64422 40.1256 965.33 0 0
68.6852 43.5239 1047.09 0 0
-169.519 43.6075 984.363 0 0
-101.761 43.3981 979.637 0 0
-34.4618 42.9558 969.653 0 0
32.656 44.1118 995.749 0 0
-208.574 47.8506 1017.37 0 0
-132.897 45.7326 972.338 0 0
-67.1042 46.1821 981.895 0 0
-0.00556971 45.5128 967.666 0 0
-251.691 52.6709 1058.35 0 0
-166.572 48.9135 982.85 0 0
-98.6822 48.5563 975.672 0 0
-32.2435 48.9124 982.827 0 0
35.4866 49.7079 998.812 0 0
-203.658 52.8583 1006.82 0 0
-130.06 50.9783 971.005 0 0
-64.4664 51.5869 982.598 0 0
2.67835 51.5511 981.917 0 0
-238.761 56.0987 1015.66 0 0
-163.658 54.2113 981.486 0 0
-95.6734 53.6984 972.199 0 0
-29.6514 54.4586 985.963 0 0
38.2149 55.1655 998.761 0 0
-199.673 58.0042 1000.64 0 0
-127.157 56.1767 969.109 0 0
-61.5501 56.7461 978.933 0 0
5.45428 57.8949 998.751 0 0
-240.528 62.8378 1035.21 0 0
-160.688 59.4707 979.735 0 0
-92.7117 58.8202 969.018 0 0
-27.0235 59.9978 988.419 0 0
41.7304 61.7887 1017.92 0 0
-195.56 63.0305 993.635 0 0
-124.891 61.6635 972.087 0 0
-58.4713 61.6729 972.234 0 0
-240.103 69.1902 1045.68 0 0
-157.547 64.6368 976.865 0 0
-90.113 64.1533 969.557 0 0
-24.398 65.6065 991.519 0 0
45.5078 68.859 1040.67 0 0
-191.704 68.0579 987.763 0 0
-121.818 66.7501 968.782 0 0
-55.8305 67.008 972.524 0 0
11.0298 69.543 1009.32 0 0
-234.623 74.079 1034.13 0 0
-154.936 70.0037 977.235 0 0
-87.4114 69.4129 968.987 0 0
-21.5585 70.6039 985.613 0 0
48.6462 75.0011 1047 0 0
-188.361 73.2079 984.402 0 0
-119.181 72.0532 968.875 0 0
-53.1006 72.2273 971.215 0 0
13.8005 75.1253 1010.18 0 0
-228.641 78.647 1020.05 0 0
-151.644 75.0392 973.253 0 0
-84.9226 74.8511 970.815 0 0
-18.8151 75.7935 983.037 0 0
51.6338 80.922 1049.55 0 0
-185.063 78.3325 981.182 0 0
-116.65 77.4277 969.848 0 0
-50.5705 77.7283 973.615 0 0
16.4721 80.2113 1004.72 0 0
-224.198 83.6066 1012.58 0 0
-149.108 80.4267 974.063 0 0
-82.4378 80.323 972.807 0 0
-16.1543 81.2999 984.64 0 0
54.3909 86.482 1047.4 0 0
-181.546 83.3131 976.687 0 0
-114.006 82.7346 969.906 0 0
-47.8626 82.9702 972.669 0 0
19.3015 86.0743 1009.06 0 0
-220.24 88.663 1007.13 0 0
-146.234 85.6282 972.66 0 0
-80.016 85.896 975.702 0 0
-13.488 86.8443 986.473 0 0
-268.883 97.0495 1069.2 0 0
-178.419 88.426 974.192 0 0
-111.404 88.0761 970.338 0 0
-45.3916 88.6543 976.707 0 0
22.1523 91.9753 1013.29 0 0
-215.678 93.3855 998.755 0 0
-143.265 90.7491 970.559 0 0
-77.2438 91.1059 974.375 0 0
-10.8498 92.7356 991.804 0 0
-261.414 101.135 1050.92 0 0
-175.83 93.7911 974.601 0 0
-108.839 93.4558 971.117 0 0
-42.9286 94.4487 981.434 0 0
-212.023 98.4165 994.419 0 0
-139.834 95.5232 965.184 0 0
-74.6596 96.5351 975.409 0 0
-8.17974 98.6515 996.794 0 0
-252.371 104.33 1025.84 0 0
-172.326 98.6385 969.876 0 0
-106.108 98.6932 970.413 0 0
-40.2419 99.8042 981.337 0 0
-207.788 103.1 987.209 0 0
-137.246 100.837 965.539 0 0
-72.0506 101.948 976.184 0 0
-5.47326 104.448 1000.12 0 0
-258.331 113.799 1061.86 0 0
-169.666 103.935 969.823 0 0
-103.485 104.028 970.694 0 0
-37.6754 105.494 984.366 0 0
-204.44 108.153 984.084 0 0
-134.577 106.092 965.327 0 0
-69.5915 107.609 979.127 0 0
-2.7489 110.292 1003.55 0 0
-252.813 118.379 1050.99 0 0
-166.629 108.984 967.579 0 0
-100.784 109.283 970.235 0 0
-35.0795 111.175 987.034 0 0
-200.955 113.086 980.208 0 0
-131.992 111.414 965.718 0 0
-66.8281 112.815 977.855 0 0
-0.00579651 116.185 1007.07 0 0
-246.362 122.348 1035.94 0 0
-163.591 114 965.261 0 0
-98.1039 114.554 969.955 0 0
-32.4347 116.763 988.654 0 0
36.1525 120.176 1017.55 0 0
-197.059 117.717 974.189 0 0
-129.056 116.427 963.508 0 0
-64.1682 118.184 978.053 0 0
2.76411 122.45 1013.36 0 0
-240.094 126.205 1021.32 0 0
-160.782 119.151 964.241 0 0
-95.5415 119.969 970.859 0 0
-29.7605 122.284 989.593 0 0
-297.132 140.094 1109.19 0 0
-193.983 122.782 972.122 0 0
-126.548 121.815 964.463 0 0
-61.6319 123.807 980.233 0 0
5.55512 128.477 1017.21 0 0
-234.727 130.358 1010.24 0 0
-158.181 124.449 964.45 0 0
-92.9619 125.376 971.634 0 0
-27.193 128.342 994.62 0 0
-289.536 143.89 1091.98 0 0
-190.895 127.808 969.934 0 0
-123.955 127.132 964.803 0 0
-59.2231 129.758 984.734 0 0
8.44642 135.82 1030.74 0 0
-229.632 134.514 1000.08 0 0
-154.888 129.174 960.377 0 0
-89.9596 130.187 967.907 0 0
-24.5445 134.164 997.475 0 0
-267.662 139.981 1019.99 0 0
-187.9 132.868 968.162 0 0
-121.232 132.313 964.119 0 0
-56.4172 134.869 982.745 0 0
11.3455 142.48 1038.2 0 0
-225.149 138.902 992.369 0 0
-151.502 133.752 955.578 0 0
-87.4166 135.638 969.046 0 0
-21.9198 140.269 1002.13 0 0
-271.398 149.142 1045.12 0 0
-185.143 138.078 967.583 0 0
-118.533 137.51 963.604 0 0
-53.7688 140.34 983.436 0 0
14.2236 148.577 1041.16 0 0
-220.591 143.13 984.137 0 0
-148.922 139.006 955.783 0 0
-85.068 141.434 972.478 0 0
-19.2563 146.323 1006.09 0 0
-271.523 156.575 1056.72 0 0
-181.986 142.965 964.866 0 0
-115.98 142.877 964.274 0 0
-51.1757 145.987 985.266 0 0
17.2164 155.596 1050.11 0 0
-216.452 147.523 977.592 0 0
-146.244 144.167 955.355 0 0
-82.4853 146.885 973.368 0 0
-16.5811 152.511 1010.65 0 0
-265.621 160.531 1044.87 0 0
-178.85 147.827 962.184 0 0
-113.214 147.979 963.169 0 0
-48.6565 151.917 988.801 0 0
20.2433 162.594 1058.3 0 0
-212.594 152.019 972.169 0 0
-143.212 148.953 952.562 0 0
-79.6092 151.796 970.741 0 0
-13.8377 158.256 1012.05 0 0
-258.206 163.359 1026.74 0 0
-175.498 152.461 958.245 0 0
-110.486 153.112 962.338 0 0
-46.0465 157.64 990.799 0 0
-208.637 156.36 966.152 0 0
-140.544 154.089 952.123 0 0
-76.9639 157.119 970.843 0 0
-11.1205 164.516 1016.55 0 0
-252.008 166.728 1013.1 0 0
-172.679 157.517 957.134 0 0
-107.746 158.212 961.362 0 0
-43.4982 163.659 994.456 0 0
-205.319 161.11 962.972 0 0
-137.868 159.21 951.619 0 0
-74.5107 162.865 973.464 0 0
-8.45921 172.466 1030.85 0 0
-246.486 170.364 1001.92 0 0
-169.304 162.024 952.866 0 0
-105.107 163.451 961.264 0 0
-40.807 169.208 995.118 0 0
-288.19 178.581 1033.62 0 0
-201.76 165.614 958.573 0 0
-135.143 164.262 950.749 0 0
-71.8219 168.121 973.086 0 0
-5.6982 179.893 1041.22 0 0
-242.672 175.066 997.498 0 0
-166.017 166.548 948.965 0 0
-102.66 169.002 962.95 0 0
-38.27 175.488 999.901 0 0
-275.957 178.157 999.546 0 0
-199.018 170.749 957.984 0 0
-132.152 168.958 947.932 0 0
-69.3876 174.007 976.26 0 0
-2.86101 186.165 1044.47 0 0
-237.935 179.006 989.138 0 0
-163.065 171.36 946.886 0 0
-100.163 174.502 964.251 0 0
-35.7179 181.876 1005 0 0
-276.424 185.772 1011.25 0 0
-195.695 175.356 954.551 0 0
-129.493 174.049 947.438 0 0
-66.6487 179.155 975.23 0 0
-0.00604297 192.87 1049.89 0 0
-234.116 183.539 984.449 0 0
-160.33 176.374 946.019 0 0
-97.5031 179.73 964.015 0 0
-33.1033 188.123 1009.03 0 0
-273.997 191.536 1012.49 0 0
-192.756 180.266 952.92 0 0
-127.09 179.492 948.828 0 0
-64.1128 184.86 977.208 0 0
2.90208 201.267 1063.94 0 0
-229.714 187.525 977.172 0 0
-157.898 181.724 946.945 0 0
-94.7999 184.867 963.322 0 0
-30.5236 194.778 1014.97 0 0
-280.516 203.818 1047.16 0 0
-189.207 184.554 948.188 0 0
-124.843 185.194 951.473 0 0
-61.7568 191.178 982.22 0 0
5.86315 208.968 1073.62 0 0
-225.668 191.699 971.254 0 0
-155.48 187.106 947.983 0 0
-92.6257 191.08 968.12 0 0
-27.8492 201.048 1018.62 0 0
-273.052 206.07 1029.81 0 0
-186.128 189.243 945.713 0 0
-122.236 190.385 951.422 0 0
-59.3136 197.352 986.238 0 0
8.74677 213.591 1067.39 0 0
-221.794 195.931 965.942 0 0
-153.002 192.43 948.683 0 0
-89.9021 196.204 967.288 0 0
-25.3848 209.254 1031.62 0 0
-266.818 209.021 1016.78 0 0
-183.637 194.512 946.196 0 0
-119.631 195.58 951.39 0 0
-56.8248 203.485 989.844 0 0
11.6626 219.392 1067.22 0 0
-218.776 200.865 964.277 0 0
-150.134 197.255 946.949 0 0
-87.3503 201.705 968.31 0 0
-22.9935 218.975 1051.22 0 0
-261.129 212.215 1005.57 0 0
-181.047 199.681 946.177 0 0
-117.133 200.956 952.22 0 0
-54.385 209.923 994.707 0 0
14.5328 224.5 1063.78 0 0
-215.443 205.472 961.17 0 0
-146.805 201.417 942.2 0 0
-84.6298 206.818 967.467 0 0
-20.2901 226.621 1060.1 0 0
-256.734 216.326 999.166 0 0
-178.237 204.596 944.989 0 0
-114.329 205.801 950.552 0 0
-52.0076 216.784 1001.28 0 0
-211.685 209.607 956.063 0 0
-145.032 207.716 947.438 0 0
-82.3289 212.996 971.523 0 0
-17.4814 233.606 1065.53 0 0
-252.433 220.418 992.992 0 0
-175.396 209.454 943.601 0 0
-111.715 210.967 950.417 0 0
-49.7679 224.501 1011.39 0 0
-208.297 214.037 952.519 0 0
-142.413 212.852 947.243 0 0
-79.7165 218.426 972.05 0 0
-14.4901 238.137 1059.77 0 0
-248.526 224.767 988.248 0 0
-173.092 214.955 945.107 0 0
-109.312 216.548 952.11 0 0
-47.3745 231.847 1019.38 0 0
-296.358 239.95 1042.48 0 0
-205.462 218.998 951.448 0 0
-139.796 217.987 947.053 0 0
-77.0668 223.761 972.141 0 0
-11.5604 243.238 1056.76 0 0
-244.556 228.982 983.147 0 0
-170.672 220.332 946.009 0 0
-106.752 221.842 952.493 0 0
-45.2648 241.023 1034.85 0 0
-281.784 235.837 1000.83 0 0
-202.688 224.007 950.632 0 0
-137.018 222.858 945.753 0 0
-74.7832 230.226 977.024 0 0
-8.65281 248.469 1054.44 0 0
-241.393 233.896 981.216 0 0
-167.632 224.894 943.453 0 0
-104.53 227.882 955.987 0 0
-43.2244 251.262 1054.07 0 0
-279.524 241.719 1002.54 0 0
-200.067 229.179 950.525 0 0
-134.684 228.452 947.514 0 0
-72.5729 237.071 983.26 0 0
-5.75956 253.749 1052.43 0 0
-238.464 239.013 980.2 0 0
-165.162 230.204 944.076 0 0
-101.857 232.971 955.424 0 0
-40.3747 257.226 1054.89 0 0
-285.05 254.583 1032.48 0 0
-197.48 234.389 950.582 0 0
-131.735 232.998 944.94 0 0
-70.2139 243.587 987.885 0 0
-2.87798 259.068 1050.67 0 0
-235.009 243.567 976.975 0 0
-162.915 235.849 946.016 0 0
-99.3001 238.325 955.947 0 0
-37.3753 262.179 1051.63 0 0
-279.801 257.99 1023.6 0 0
-194.344 238.924 947.957 0 0
-129.644 239.072 948.543 0 0
-67.8373 250.181 992.622 0 0
-0.00603221 264.143 1048.02 0 0
-231.725 248.251 974.394 0 0
-160.275 240.939 945.695 0 0
-96.935 244.175 958.398 0 0
-34.4222 267.319 1049.24 0 0
-276.579 263.182 1022.04 0 0
-192.092 244.538 949.634 0 0
-126.855 243.878 947.072 0 0
-65.6259 257.578 1000.27 0 0
2.85181 269.227 1045.51 0 0
-228.607 253.075 972.462 0 0
-157.321 245.533 943.482 0 0
-94.7096 250.458 962.406 0 0
-31.4145 271.845 1044.59 0 0
-271.975 266.992 1015.28 0 0
-189.393 249.593 949.116 0 0
-124.163 248.851 946.291 0 0
-63.4156 265.237 1008.6 0 0
5.70337 274.64 1044.36 0 0
-225.363 257.721 969.941 0 0
-155.294 251.585 946.847 0 0
-92.1031 255.786 962.658 0 0
-28.5118 277.096 1042.86 0 0
-267.658 270.982 1009.46 0 0
-186.73 254.69 948.771 0 0
-121.83 254.554 948.264 0 0
-61.3551 273.86 1020.18 0 0
8.52837 279.377 1040.74 0 0
-222.883 263.226 970.687 0 0
-152.822 256.957 947.57 0 0
-89.726 261.79 965.393 0 0
-25.5924 282.039 1040.06 0 0
-264.377 275.957 1007.48 0 0
-184.152 259.898 948.849 0 0
-119.479 260.262 950.18 0 0
-59.4147 283.484 1034.96 0 0
-219.495 267.636 967.447 0 0
-150.205 262.09 947.397 0 0
-87.1509 267.264 966.1 0 0
-22.6956 287.043 1037.6 0 0
-260.242 279.978 1002.16 0 0
-181.927 265.623 950.775 0 0
-116.695 265.032 948.658 0 0
-57.0608 291.569 1043.65 0 0
-323.969 312.478 1107.65 0 0
-216.551 272.548 966.109 0 0
-147.59 267.224 947.237 0 0
-85.1657 274.659 973.594 0 0
-19.8284 292.259 1035.98 0 0
-256.842 284.725 999.588 0 0
-179.244 270.694 950.329 0 0
-114.366 270.844 950.855 0 0
-54.1323 296.859 1042.19 0 0
-295.815 293.595 1020.93 0 0
-213.999 277.945 966.513 0 0
-145.163 272.707 948.298 0 0
-83.0905 281.971 980.51 0 0
-16.9387 296.907 1032.45 0 0
-252.9 288.807 994.827 0 0
-176.624 275.855 950.211 0 0
-112.233 277.193 954.822 0 0
-51.1984 302.055 1040.46 0 0
-284.136 290.102 989.967 0 0
-211.268 283.11 966.105 0 0
-142.685 278.113 949.053 0 0
-80.7105 288.403 984.17 0 0
-14.1402 303.057 1034.17 0 0
-249.841 293.846 993.476 0 0
-174.183 281.301 951.061 0 0
-109.533 282.18 954.034 0 0
-48.1667 306.548 1036.42 0 0
-295.529 310.319 1039.56 0 0
-208.551 288.286 965.751 0 0
-140.153 283.427 949.476 0 0
-78.3103 294.876 987.828 0 0
-11.2963 308.245 1032.61 0 0
-246.39 298.387 990.519 0 0
-171.837 286.924 952.469 0 0
-107.135 287.96 955.908 0 0
-45.1734 311.11 1032.76 0 0
-289.035 312.058 1026.59 0 0
-205.964 293.64 965.998 0 0
-137.648 288.807 950.099 0 0
-76.2898 302.975 996.708 0 0
-8.49123 314.54 1034.75 0 0
-243.153 303.142 988.369 0 0
-169.275 292.203 952.702 0 0
-105.147 294.939 961.623 0 0
-42.3444 316.711 1032.61 0 0
-284.759 316.039 1021.32 0 0
-203.335 298.939 966.055 0 0
-135.505 294.99 953.294 0 0
-74.7556 313.414 1012.83 0 0
-5.65346 319.668 1033.04 0 0
-240.636 308.782 989.126 0 0
-166.862 297.752 953.794 0 0
-102.771 300.935 963.989 0 0
-39.4291 321.599 1030.18 0 0
-279.773 319.119 1013.37 0 0
-201.034 304.735 967.69 0 0
-133.233 300.954 955.684 0 0
-72.8848 322.929 1025.46 0 0
-2.82 324.2 1029.5 0 0
-236.87 312.787 984.711 0 0
-164.948 304.245 957.819 0 0
-100.664 307.821 969.078 0 0
-36.4673 325.928 1026.08 0 0
-276.633 324.225 1012.01 0 0
-198.751 310.59 969.453 0 0
-130.873 306.771 957.533 0 0
-70.9967 332.824 1038.85 0 0
-0.00592313 329.69 1029.07 0 0
-234.163 318.149 984.645 0 0
-162.139 309.117 956.692 0 0
-98.2245 313.788 971.147 0 0
-33.6428 331.342 1025.48 0 0
-265.814 320.063 982.258 0 0
-196.226 316.093 970.075 0 0
-128.462 312.508 959.074 0 0
-68.3213 339.319 1041.35 0 0
2.80969 335.641 1030.07 0 0
-231.437 323.484 984.498 0 0
-159.442 314.187 956.205 0 0
-95.8884 320.16 974.384 0 0
-30.8511 337.073 1025.86 0 0
-261.296 323.165 975.415 0 0
-193.655 321.529 970.475 0 0
-125.978 318.099 960.123 0 0
-65.0861 342.963 1035.17 0 0
5.61224 340.479 1027.67 0 0
-228.59 328.642 983.83 0 0
-157.244 320.261 958.739 0 0
-93.777 327.414 980.153 0 0
-28.0186 342.335 1024.82 0 0
-274.109 348.159 1033.8 0 0
-190.967 326.775 970.298 0 0
-123.788 324.485 963.5 0 0
-62.2266 348.455 1034.67 0 0
-226.3 334.611 985.569 0 0
-154.705 325.673 959.241 0 0
-91.8067 335.362 987.78 0 0
-25.1693 347.275 1022.87 0 0
-272.136 354.923 1037.05 0 0
-188.271 332.002 970.074 0 0
-120.916 329.105 961.61 0 0
-59.236 353.143 1031.85 0 0
11.2373 351.933 1028.31 0 0
-223.716 340.166 986.053 0 0
-152.142 331.045 959.614 0 0
-89.7431 343.196 994.835 0 0
-22.3459 352.433 1021.61 0 0
-266.817 357.265 1027.48 0 0
-186.177 338.319 972.988 0 0
-118.928 336.173 966.818 0 0
-56.3015 358.059 1029.76 0 0
-220.815 345.235 985.136 0 0
-149.56 336.384 959.877 0 0
-87.9704 352.427 1005.66 0 0
-19.5334 357.651 1020.57 0 0
-263.015 361.517 1023.61 0 0
-183.395 343.409 972.339 0 0
-116.571 342.297 969.191 0 0
-53.3229 362.574 1026.61 0 0
-218.248 350.822 985.701 0 0
-146.674 341.023 958.168 0 0
-86.4576 363.116 1020.24 0 0
-16.7098 362.495 1018.5 0 0
-259.18 365.649 1019.53 0 0
-180.823 348.89 972.8 0 0
-114.447 349.198 973.66 0 0
-50.3999 367.335 1024.23 0 0
19.6859 369.1 1029.15 0 0
-215.046 355.373 983.383 0 0
-144.687 347.781 962.373 0 0
-84.7312 373.375 1033.2 0 0
-13.8913 367.15 1015.97 0 0
-255.275 369.605 1015.09 0 0
-178.622 355.117 975.298 0 0
-112.203 355.843 977.29 0 0
-47.4505 371.761 1021.01 0 0
22.4399 373.742 1026.45 0 0
-213.153 362.1 987.064 0 0
-142.409 353.916 964.755 0 0
-81.997 379.44 1034.33 0 0
-11.1239 373.029 1016.86 0 0
-252.233 374.756 1014.01 0 0
-175.716 359.958 973.969 0 0
-109.767 361.964 979.396 0 0
-44.5422 376.351 1018.33 0 0
-292.083 386.241 1037.41 0 0
-210.838 368.165 988.861 0 0
-139.865 359.431 965.404 0 0
-79.1329 384.915 1033.85 0 0
-8.34126 378.446 1016.48 0 0
-248.576 378.951 1010.41 0 0
-173.146 365.478 974.491 0 0
-107.618 369.127 984.219 0 0
-41.6484 380.91 1015.64 0 0
-299.997 406.478 1075.97 0 0
-208.107 373.519 988.724 0 0
-137.524 365.499 967.493 0 0
-75.9877 388.933 1029.53 0 0
-5.55656 383.573 1015.34 0 0
-245.474 383.943 1009.02 0 0
-170.683 371.241 975.636 0 0
-105.673 377.171 991.219 0 0
-38.9507 387.242 1017.69 0 0
-293.972 408.079 1064.8 0 0
-206.013 380.047 991.654 0 0
-135.068 371.306 968.847 0 0
-73.0672 393.988 1028.03 0 0
-2.78143 389.156 1015.42 0 0
-243.117 390.102 1010.68 0 0
-167.966 376.463 975.344 0 0
-103.687 385.275 998.177 0 0
-36.0245 391.237 1013.62 0 0
-202.504 383.956 987.763 0 0
-132.683 377.354 970.779 0 0
-69.9782 398.021 1023.95 0 0
-0.00583479 394.046 1013.72 0 0
-240.134 395.264 1009.75 0 0
-165.262 381.707 975.12 0 0
-102.08 395.075 1009.27 0 0
-33.2146 396.31 1012.43 0 0
-270.645 394.223 1000.11 0 0
-199.72 389.191 987.346 0 0
-130.467 383.948 974.044 0 0
-66.8789 401.814 1019.37 0 0
2.76961 400.239 1015.37 0 0
-237.018 400.184 1008.24 0 0
-162.883 387.72 976.84 0 0
-100.368 404.812 1019.9 0 0
-30.4412 401.766 1012.23 0 0
-265.975 396.802 992.883 0 0
-197.642 395.833 990.458 0 0
-128.165 390.371 976.792 0 0
-63.8518 405.857 1015.54 0 0
5.5464 405.888 1015.62 0 0
-234.204 405.595 1007.99 0 0
-160.204 393.039 976.787 0 0
-98.426 413.946 1028.74 0 0
-27.6496 406.936 1011.32 0 0
-264.756 404.513 998.52 0 0
-194.964 401.307 990.604 0 0
-125.821 396.738 979.327 0 0
-60.9427 410.512 1013.33 0 0
8.33516 412.065 1017.16 0 0
-231.273 410.794 1007.23 0 0
-157.806 399.066 978.47 0 0
-95.868 420.685 1031.48 0 0
-24.8016 411.079 1007.92 0 0
-265.977 416.152 1013.57 0 0
-191.696 405.538 987.719 0 0
-123.887 404.517 985.234 0 0
-57.9515 414.469 1009.47 0 0
-228.3 415.899 1006.26 0 0
-155.15 404.464 978.588 0 0
-92.8457 425.394 1029.23 0 0
-22.0667 416.97 1008.85 0 0
-263.849 422.723 1016.05 0 0
-189.081 411.123 988.165 0 0
-121.881 412.229 990.824 0 0
-55.1628 419.763 1008.93 0 0
-225.78 421.83 1007.28 0 0
-152.815 410.727 980.769 0 0
-89.6207 429.05 1024.52 0 0
-19.2954 422.185 1008.13 0 0
-266.158 436.622 1035.84 0 0
-186.44 416.658 988.48 0 0
-119.84 419.982 996.367 0 0
-52.2627 424.125 1006.19 0 0
-222.453 426.239 1004.7 0 0
-150.372 416.748 982.323 0 0
-86.6295 433.696 1022.27 0 0
-264.584 444.397 1040.79 0 0
-183.801 422.206 988.819 0 0
-117.837 428.048 1002.5 0 0
-49.4365 428.968 1004.65 0 0
-219.957 432.222 1005.84 0 0
-148.04 423.128 984.674 0 0
-83.4936 437.495 1018.11 0 0
-13.7432 431.922 1005.14 0 0
-260.478 447.918 1035.77 0 0
-180.93 427.215 987.901 0 0
-116.111 437.348 1011.33 0 0
-46.6517 434.1 1003.82 0 0
-216.302 435.896 1001.64 0 0
-145.712 429.581 987.132 0 0
-80.3113 440.868 1013.07 0 0
-10.9869 437.067 1004.33 0 0
-257.08 452.583 1033.5 0 0
-177.876 431.759 985.944 0 0
-114.419 447.068 1020.9 0 0
-43.8548 439.057 1002.61 0 0
-213.869 442.004 1003.08 0 0
-143.462 436.341 990.225 0 0
-77.4261 445.738 1011.55 0 0
-8.26231 443.669 1006.86 0 0
-255.126 459.803 1037.04 0 0
-176.018 439.236 990.652 0 0
-112.484 456.119 1028.73 0 0
-41.0466 443.807 1000.96 0 0
-292.308 467.703 1048.39 0 0
-210.623 446.418 1000.68 0 0
-141.091 442.81 992.592 0 0
-74.5724 450.733 1010.35 0 0
-250.747 462.623 1030.69 0 0
-172.969 443.778 988.704 0 0
-109.431 460.727 1026.47 0 0
-38.315 449.332 1001.08 0 0
-282.077 461.387 1021.71 0 0
-207.845 451.796 1000.47 0 0
-139.312 451.261 999.29 0 0
-71.6211 455.052 1007.68 0 0
-246.406 465.38 1024.35 0 0
-170.856 450.737 992.125 0 0
-106.185 464.414 1022.23 0 0
-35.5391 454.299 999.964 0 0
-205.453 458.028 1002.14 0 0
-137.042 458.267 1002.67 0 0
-68.6719 459.257 1004.83 0 0
-0.00582312 462.393 1011.69 0 0
-243.425 470.63 1023.59 0 0
-168.351 456.724 993.349 0 0
-102.985 468.158 1018.22 0 0
-202.711 463.502 1002.13 0 0
-135.266 467.08 1009.87 0 0
-65.8088 463.93 1003.06 0 0
-239.598 474.188 1019.22 0 0
-165.884 462.846 994.835 0 0
-99.4951 470.382 1011.03 0 0
-199.926 468.872 1001.9 0 0
-133.432 475.905 1016.93 0 0
-63.0566 469.336 1002.89 0 0
-236.4 478.926 1017.44 0 0
-162.981 467.758 993.717 0 0
-96.6842 475.676 1010.54 0 0
-197.098 474.135 1001.45 0 0
-131.463 484.451 1023.24 0 0
-60.2794 474.536 1002.3 0 0
-234.129 485.545 1019.66 0 0
-161 475.361 998.275 0 0
-93.5414 479.251 1006.44 0 0
-194.486 479.919 1002.1 0 0
-129.106 491.722 1026.74 0 0
-57.4744 479.471 1001.16 0 0
-231.015 490.425 1018.22 0 0
-158.734 482.224 1001.19 0 0
-90.6882 484.208 1005.31 0 0
-191.299 484.265 999.756 0 0
-126.665 498.773 1029.71 0 0
-54.711 484.707 1000.67 0 0
-227.404 494.194 1014.53 0 0
-156.342 488.775 1003.41 0 0
-87.8788 489.362 1004.61 0 0
-267.964 510.85 1042.87 0 0
-188.788 490.306 1000.93 0 0
-123.537 503.127 1027.11 0 0
-52.0468 490.848 1002.04 0 0
-224.228 498.845 1012.71 0 0
-154.78 498.059 1011.12 0 0
-84.8889 493.436 1001.73 0 0
-271.963 529.897 1069.82 0 0
-186.035 495.731 1000.84 0 0
-120.083 506.019 1021.61 0 0
-49.3236 496.485 1002.36 0 0
-220.692 502.632 1009.2 0 0
-153.222 507.584 1019.14 0 0
-82.1917 499.161 1002.23 0 0
-265.843 529.382 1057.11 0 0
-184.204 503.677 1005.78 0 0
-116.643 508.779 1015.97 0 0
-217.419 506.95 1006.82 0 0
-149.587 510.257 1013.39 0 0
-79.3747 504.148 1001.25 0 0
-260.761 530.7 1048.3 0 0
-181.368 508.933 1005.3 0 0
-113.391 512.188 1011.73 0 0
-215.358 514.103 1010.06 0 0
-147.6 518.549 1018.79 0 0
-76.6961 510.009 1002.02 0 0
-258.826 538.365 1052.08 0 0
-179.112 515.845 1008.07 0 0
-110.177 515.618 1007.62 0 0
-212.845 520.23 1011.24 0 0
-146.121 528.843 1027.98 0 0
-73.53 512.51 996.228 0 0
-256.124 544.486 1052.79 0 0
-177.124 523.625 1012.45 0 0
-107.058 519.359 1004.21 0 0
-38.2398 516.724 999.112 0 0
-210.268 526.228 1012.14 0 0
-143.627 535.642 1030.24 0 0
-70.4932 515.662 991.815 0 0
-250.399 544.055 1040.95 0 0
-174.906 530.828 1015.65 0 0
-104.15 524.029 1002.64 0 0
-207.754 532.407 1013.37 0 0
-141.379 543.458 1034.4 0 0
-67.7803 521.069 991.788 0 0
-245.171 544.455 1030.94 0 0
-173.457 540.516 1023.48 0 0
-101.087 527.825 999.446 0 0
-205.582 539.517 1016.32 0 0
-140.499 556.829 1048.94 0 0
-65.0624 526.435 991.682 0 0
-241.65 548.494 1027.94 0 0
-171.867 549.974 1030.71 0 0
-98.5061 534.109 1000.98 0 0
-29.9573 531.523 996.137 0 0
-203.174 546.067 1018.18 0 0
-136.878 559.485 1043.2 0 0
-62.5109 533.215 994.214 0 0
-237.977 552.112 1024.23 0 0
-168.52 553.869 1027.49 0 0
-95.3856 537.416 996.967 0 0
-201.232 553.951 1022.46 0 0
-131.978 556.547 1027.25 0 0
-234.954 557.181 1023.26 0 0
-165.235 557.878 1024.54 0 0
-92.5227 542.059 995.484 0 0
-287.42 599.398 1095.29 0 0
-198.456 559.593 1022.55 0 0
-128.058 557.325 1018.41 0 0
-230.658 559.143 1016.65 0 0
-163.393 566.802 1030.58 0 0
-90.1764 549.786 999.638 0 0
-274.147 583.507 1055.7 0 0
-196.099 566.448 1024.84 0 0
-124.611 559.91 1013.01 0 0
-54.402 549.965 995.018 0 0
-228.6 566.486 1019.86 0 0
-161.911 577.198 1039.15 0 0
-87.0552 552.782 995.194 0 0
-269.493 585.436 1048.82 0 0
-193.439 572.47 1025.59 0 0
-121.638 564.501 1011.32 0 0
-51.8651 557.37 998.54 0 0
-225.816 572.071 1019.88 0 0
-161.153 590.508 1052.75 0 0
-84.5854 559.881 998.15 0 0
-265.019 587.608 1042.5 0 0
-191.103 579.491 1028.1 0 0
-117.965 565.673 1003.58 0 0
-223.144 577.946 1020.41 0 0
-157.06 591.686 1044.67 0 0
-81.8188 565.074 997.684 0 0
-13.8541 573.889 1013.25 0 0
-260.682 589.941 1036.59 0 0
-189.405 588.57 1034.18 0 0
-115.093 570.52 1002.46 0 0
-46.2915 566.883 996.072 0 0
-219.926 582.389 1018.43 0 0
-158.111 612.53 1071.13 0 0
-78.5453 566.587 990.792 0 0
-257.293 594.324 1034.35 0 0
-188.633 600.767 1045.57 0 0
-112.089 574.651 1000.11 0 0
-43.6872 573.883 998.777 0 0
-218.752 592.315 1025.97 0 0
-76.331 575.729 997.246 0 0
-8.52885 600.029 1039.34 0 0
-253.822 598.46 1031.73 0 0
-184.634 602.758 1039.14 0 0
-109.33 579.985 999.883 0 0
-215.426 596.48 1023.5 0 0
-73.6143 581.254 997.371 0 0
-5.73792 611.039 1048.48 0 0
-250.386 602.618 1029.2 0 0
-181.18 606.385 1035.64 0 0
-106.247 583.527 996.597 0 0
-301.517 642.446 1092.13 0 0
-213.592 604.806 1028.14 0 0
-151.318 638.497 1085.41 0 0
-247.291 607.553 1028.03 0 0
-179.456 615.846 1042.07 0 0
-103.788 590.483 999.148 0 0
-291.697 633.572 1067.12 0 0
-210.341 609.15 1025.99 0 0
-140.679 611.104 1029.28 0 0
731.429 794.366 1337.95 0 0
-244.239 612.568 1027.02 0 0
-178.651 628.734 1054.12 0 0
-100.5 592.664 993.646 0 0
-286.034 633.325 1056.97 0 0
-207.441 614.475 1025.51 0 0
-135.534 606.299 1011.87 0 0
-240.932 616.901 1024.89 0 0
-178.141 643.057 1068.34 0 0
-97.7727 598.026 993.531 0 0
-280.939 634.125 1048.74 0 0
-205.493 622.673 1029.8 0 0
-132.116 608.829 1006.91 0 0
647.215 808.871 1337.74 0 0
-238.854 624.395 1028 0 0
-174.902 647.716 1066.4 0 0
-93.9509 596.436 981.971 0 0
