ply
format ascii 1.0
element vertex 1649
property float x
property float y
property float z
property float u
property float v
end_header
-33.0427 -340.013 929.723 0 0
-305.445 -324.482 893.937 0 0
-249.016 -330.67 910.983 0 0
-193.597 -342.768 944.314 0 0
-127.997 -339.927 936.488 0 0
-60.976 -323.861 892.225 0 0
-0.00555399 -350.253 964.934 0 0
-332.65 -320.003 888.285 0 0
-277.577 -326.626 906.671 0 0
-220.676 -334.285 927.932 0 0
-163.765 -348.102 966.285 0 0
-92.0456 -327.846 910.057 0 0
-30.4317 -334.166 927.6 0 0
-363.131 -318.755 891.585 0 0
-301.773 -318.3 890.313 0 0
-248.397 -328.161 917.898 0 0
-192.068 -339.467 949.519 0 0
-124.888 -333.342 932.387 0 0
-58.4113 -318.297 890.306 0 0
2.62919 -344.606 963.895 0 0
-328.428 -313.434 883.458 0 0
-274.891 -321.426 905.984 0 0
-219.344 -331.031 933.057 0 0
-161.758 -344.17 970.091 0 0
-88.1453 -317.778 895.701 0 0
-27.7281 -327.112 922.011 0 0
-351.35 -305.749 868.488 0 0
-301.253 -315.437 896.006 0 0
-245.874 -323.125 917.844 0 0
-190.682 -336.409 955.58 0 0
-121.963 -327.235 929.52 0 0
-55.8554 -312.745 888.361 0 0
5.24194 -337.919 959.867 0 0
-357.605 -285.618 817.654 0 0
-327.418 -309.934 887.266 0 0
-272.492 -316.563 906.242 0 0
-218.038 -327.801 938.415 0 0
-159.368 -339.424 971.687 0 0
-84.5315 -308.626 883.52 0 0
-25.094 -320.616 917.846 0 0
-347.322 -299.574 864.371 0 0
-298.451 -310.172 894.948 0 0
-243.452 -318.22 918.171 0 0
-189.15 -333.086 961.065 0 0
-118.286 -319.088 920.675 0 0
-53.0163 -305.521 881.53 0 0
7.85619 -332.27 958.71 0 0
-360.703 -285.367 829.924 0 0
-325.53 -305.589 888.734 0 0
-269.85 -311.418 905.688 0 0
-215.756 -323.094 939.645 0 0
-156.816 -334.334 972.333 0 0
-81.9889 -303.324 882.147 0 0
-22.4147 -313.217 910.919 0 0
-343.191 -293.337 859.94 0 0
-295.889 -305.16 894.598 0 0
-242.048 -314.638 922.385 0 0
-187.9 -330.254 968.163 0 0
-114.314 -310.107 909.102 0 0
-50.3641 -299.26 877.304 0 0
10.491 -327.473 960.012 0 0
-352.532 -276.205 816.258 0 0
-322.999 -300.635 888.452 0 0
-268.437 -307.686 909.291 0 0
-214.206 -319.476 944.134 0 0
-153.23 -327.037 966.478 0 0
-79.1678 -296.964 877.605 0 0
-19.6655 -304.227 899.069 0 0
46.589 -339.301 1002.72 0 0
-358.869 -259.212 772.277 0 0
-340.852 -288.646 859.969 0 0
-292.446 -299.248 891.557 0 0
-240.025 -310.24 924.303 0 0
-186.653 -327.414 975.472 0 0
-110.19 -300.665 895.778 0 0
-47.5391 -291.843 869.496 0 0
13.085 -321.484 957.804 0 0
-347.656 -269.692 810.096 0 0
-320.304 -295.532 887.715 0 0
-267.297 -304.245 913.888 0 0
-213.125 -316.543 950.825 0 0
-150.036 -320.573 962.933 0 0
-76.0462 -289.416 869.343 0 0
-17.0931 -297.314 893.067 0 0
48.7796 -330.096 991.536 0 0
-358.654 -256.346 776.382 0 0
-337.794 -283.352 858.173 0 0
-292.233 -296.631 898.392 0 0
-239.279 -307.474 931.232 0 0
-184.913 -323.704 980.388 0 0
-105.788 -290.405 879.535 0 0
-44.8524 -285.119 863.527 0 0
15.7113 -316.413 958.305 0 0
-345.076 -264.982 809.237 0 0
-318.982 -291.689 890.798 0 0
-265.775 -300.353 917.257 0 0
-212.75 -314.633 960.869 0 0
-146.309 -312.968 955.783 0 0
-73.0744 -282.362 862.315 0 0
-14.585 -291.096 888.988 0 0
51.4985 -324.729 991.702 0 0
-355.553 -251.409 774.249 0 0
-337.049 -279.989 862.267 0 0
-290.29 -292.236 899.982 0 0
-237.51 -303.376 934.29 0 0
-182.999 -319.682 984.507 0 0
-103.051 -284.678 876.706 0 0
-42.384 -279.686 861.332 0 0
18.3001 -310.654 956.704 0 0
-340.621 -258.853 803.943 0 0
-317.384 -287.577 893.153 0 0
-263.622 -295.736 918.493 0 0
-211.966 -312.094 969.298 0 0
-141.633 -303.323 942.055 0 0
-70.4774 -276.706 859.39 0 0
-12.1186 -285.378 886.322 0 0
54.1997 -319.251 991.526 0 0
-343.316 -240.099 752.081 0 0
-339.187 -278.973 873.849 0 0
-288.591 -288.076 902.363 0 0
-237 -300.863 942.417 0 0
-181.752 -316.816 992.388 0 0
-100.003 -278.074 871.034 0 0
-39.6379 -272.286 852.903 0 0
20.8515 -304.495 953.793 0 0
-337.081 -253.449 800.754 0 0
-316.151 -283.779 896.58 0 0
-262.279 -292.015 922.601 0 0
-211.106 -309.418 977.584 0 0
-136.236 -292.122 922.94 0 0
-67.4221 -269.188 850.481 0 0
-9.61618 -278.226 879.035 0 0
56.6892 -312.614 987.681 0 0
-339.654 -276.52 881.257 0 0
-286.408 -283.423 903.255 0 0
-237.109 -299.098 953.211 0 0
-179.18 -311.637 993.172 0 0
-96.848 -271.144 864.125 0 0
-37.1336 -266.383 848.95 0 0
23.4842 -299.607 954.833 0 0
-334.458 -248.748 799.715 0 0
-314.561 -279.643 899.041 0 0
-261.663 -289.077 929.37 0 0
-210.085 -306.483 985.33 0 0
-130.032 -279.173 897.53 0 0
-64.9694 -264.018 848.809 0 0
-7.17717 -272.047 874.619 0 0
59.2536 -306.514 985.43 0 0
-339.302 -273.36 886.633 0 0
-285.716 -280.229 908.911 0 0
-236.399 -296.262 960.914 0 0
-177.001 -307.137 996.188 0 0
-94.0819 -265.281 860.429 0 0
-34.8385 -261.933 849.569 0 0
25.6391 -289.253 938.18 0 0
-332.733 -244.715 800.825 0 0
-312.97 -275.491 901.536 0 0
-261.124 -286.189 936.546 0 0
-209.16 -303.663 993.73 0 0
-126.708 -272.394 891.402 0 0
-62.4198 -258.428 845.701 0 0
-4.76624 -266.136 870.925 0 0
61.602 -299.449 979.938 0 0
-339.404 -270.526 893.28 0 0
-284.923 -276.903 914.336 0 0
-235.061 -292.612 966.209 0 0
-173.33 -300.049 990.765 0 0
-91.0451 -258.632 854.005 0 0
-32.2857 -255.464 843.545 0 0
27.5707 -277.748 917.127 0 0
-279.555 -174.391 581.087 0 0
-331.473 -241.013 803.076 0 0
-311.72 -271.62 905.062 0 0
-260.993 -283.71 945.346 0 0
-208.499 -301.2 1003.62 0 0
-123.24 -265.301 884.006 0 0
-60.0511 -253.564 844.898 0 0
-2.37235 -259.92 866.077 0 0
63.9179 -292.432 974.409 0 0
-337.127 -265.772 893.716 0 0
-284.599 -273.998 921.378 0 0
-234.159 -289.481 973.441 0 0
-168.075 -290.236 975.98 0 0
-88.3195 -252.843 850.238 0 0
-29.9712 -250.78 843.301 0 0
29.5692 -268.124 901.625 0 0
-331.498 -238.219 808.492 0 0
-310.277 -267.562 908.081 0 0
-260.859 -281.183 954.309 0 0
-207.692 -298.495 1013.07 0 0
-120.063 -258.829 878.443 0 0
-57.6132 -248.391 843.018 0 0
-0.0049875 -255.315 866.515 0 0
66.2556 -285.7 969.641 0 0
-322.6 -184.231 631.117 0 0
-334.197 -260.506 892.414 0 0
-284.461 -271.232 929.157 0 0
-234.274 -287.567 985.115 0 0
-161.969 -278.977 955.688 0 0
-86.2272 -248.864 852.53 0 0
-27.6277 -245.828 842.131 0 0
31.9623 -262.608 899.614 0 0
-357.382 -189.991 657.003 0 0
-330.894 -234.938 812.434 0 0
-309.463 -264.021 913.003 0 0
-260.222 -278.072 961.593 0 0
-206.949 -295.854 1023.08 0 0
-116.997 -252.592 873.481 0 0
-55.1136 -242.922 840.042 0 0
2.37209 -251.48 869.637 0 0
68.0656 -276.979 957.814 0 0
-316.573 -178.357 622.655 0 0
-332.714 -256.365 894.988 0 0
-284.84 -268.907 938.774 0 0
-234.005 -285.134 995.424 0 0
-153.627 -263.909 921.327 0 0
-83.5863 -243.299 849.374 0 0
-25.3874 -241.81 844.177 0 0
34.2618 -256.496 895.446 0 0
-338.147 -177.258 624.781 0 0
-263.335 -157.989 556.865 0 0
-305.768 -214.434 755.817 0 0
-308.728 -260.515 918.238 0 0
-260.084 -275.453 970.891 0 0
-204.444 -290.676 1024.55 0 0
-114.011 -246.522 868.918 0 0
-52.7583 -238.063 839.103 0 0
4.72966 -245.712 866.062 0 0
69.35 -266.615 939.741 0 0
-331.616 -252.499 898.642 0 0
-284.795 -266.131 947.16 0 0
-150.296 -257.481 916.372 0 0
-81.1637 -238.359 848.32 0 0
-22.9974 -236.348 841.162 0 0
36.7193 -251.668 895.686 0 0
-340.392 -175.884 632.121 0 0
-308.547 -257.438 925.222 0 0
-263.043 -276.036 992.06 0 0
-200.986 -284.145 1021.21 0 0
-111.012 -240.421 864.064 0 0
-50.4032 -233.192 838.081 0 0
7.09405 -240.878 865.704 0 0
71.1893 -258.826 930.21 0 0
-331.183 -249.108 904.166 0 0
-284.682 -263.243 955.47 0 0
-146.39 -250.077 907.684 0 0
-78.7956 -233.576 847.789 0 0
-20.8561 -233.518 847.581 0 0
38.7456 -244.113 886.037 0 0
-322.521 -164.21 601.99 0 0
-309.072 -254.899 934.455 0 0
-196.917 -276.767 1014.62 0 0
-108.556 -235.493 863.316 0 0
-48.3225 -229.608 841.74 0 0
9.45206 -235.937 864.942 0 0
-330.89 -245.784 910.159 0 0
-306.66 -280.512 1038.76 0 0
-142.901 -243.398 901.326 0 0
-76.376 -228.635 846.656 0 0
-18.5544 -229.071 848.27 0 0
41.1344 -239.077 885.324 0 0
-307.961 -154.442 577.761 0 0
-312.311 -254.511 952.117 0 0
-191.431 -267.43 1000.45 0 0
-105.96 -230.26 861.392 0 0
-46.2417 -226.082 845.766 0 0
11.8795 -232.445 869.567 0 0
-328.779 -241.084 911.203 0 0
-140.066 -237.842 898.948 0 0
-73.8588 -223.392 844.336 0 0
-16.3071 -225.42 852 0 0
43.593 -234.444 886.108 0 0
-184.206 -255.727 976.639 0 0
-103.536 -225.4 860.819 0 0
-43.8373 -220.992 843.983 0 0
14.2737 -227.968 870.624 0 0
-303.954 -159.185 614.351 0 0
-318.172 -230.229 888.536 0 0
-136.506 -231.059 891.74 0 0
-71.7037 -219.244 846.14 0 0
-14.0328 -221.624 855.325 0 0
46.3701 -231.371 892.944 0 0
-277.031 -154.662 603.261 0 0
-178.121 -245.676 958.262 0 0
-101.211 -220.755 861.056 0 0
-41.6324 -216.91 846.058 0 0
16.9352 -226.983 885.349 0 0
-304.141 -156.788 618.143 0 0
-133.455 -225.15 887.662 0 0
-69.8406 -216.009 851.624 0 0
-11.7534 -218.035 859.611 0 0
48.9196 -226.994 894.932 0 0
-282.312 -155.174 618.443 0 0
-173.258 -237.364 946.011 0 0
-99.1003 -216.578 863.169 0 0
-39.493 -213.22 849.785 0 0
19.2379 -220.797 879.983 0 0
-300.815 -152.579 614.8 0 0
-130.936 -220.141 887.032 0 0
-67.6229 -211.698 853.014 0 0
-9.4727 -214.901 865.919 0 0
51.0831 -220.879 890.006 0 0
-281.344 -152.184 620.035 0 0
-168.854 -229.72 935.937 0 0
-96.7148 -211.802 862.936 0 0
-37.261 -209.084 851.862 0 0
21.5675 -215.23 876.902 0 0
-302.468 -150.881 621.651 0 0
-128.549 -215.355 887.295 0 0
-65.4727 -207.611 855.385 0 0
-7.11451 -210.426 866.984 0 0
53.8662 -217.428 895.833 0 0
-280.923 -149.472 622.859 0 0
-165.145 -223.049 929.46 0 0
-94.7583 -207.967 866.615 0 0
-35.0104 -204.883 853.762 0 0
24.0066 -210.806 878.442 0 0
-306.483 -150.284 633.461 0 0
-126.407 -210.978 889.289 0 0
-63.3404 -203.596 858.173 0 0
-4.73624 -205.32 865.442 0 0
56.788 -214.316 903.359 0 0
-281.907 -147.472 628.851 0 0
-161.595 -216.614 923.688 0 0
-92.5956 -203.683 868.548 0 0
-32.7457 -200.638 855.565 0 0
26.5189 -206.871 882.141 0 0
-307.047 -147.927 638.231 0 0
-123.723 -205.694 887.469 0 0
-60.9734 -198.835 857.875 0 0
-2.38183 -201.539 869.539 0 0
59.2847 -209.474 903.777 0 0
-282.807 -145.381 634.73 0 0
-158.084 -210.252 917.959 0 0
-90.1128 -198.695 867.502 0 0
-30.4375 -196.157 856.422 0 0
28.9341 -202.076 882.261 0 0
-313.686 -148.405 655.759 0 0
-121.005 -200.359 885.332 0 0
-58.7806 -194.649 860.101 0 0
-0.0050128 -197.095 870.909 0 0
61.6981 -204.344 902.942 0 0
-155.016 -204.497 914.664 0 0
-87.4167 -193.235 864.29 0 0
-28.1195 -191.632 857.12 0 0
31.5347 -198.442 887.58 0 0
-319.809 -148.495 672.401 0 0
-118.326 -195.092 883.397 0 0
-56.4469 -190.005 860.364 0 0
2.37732 -192.477 871.555 0 0
64.2952 -199.809 904.757 0 0
-326.614 -140.114 642.404 0 0
-152.047 -198.884 911.855 0 0
-84.8691 -188.1 862.41 0 0
-25.8605 -187.554 859.911 0 0
34.038 -194.029 889.596 0 0
-322.759 -147 682.526 0 0
-190.816 -205.953 956.25 0 0
-115.964 -190.349 883.8 0 0
-53.9471 -184.794 858.009 0 0
4.78079 -188.545 875.424 0 0
67.1079 -195.854 909.36 0 0
-148.9 -193.05 907.861 0 0
-82.7311 -183.872 864.702 0 0
-23.5409 -183.094 861.041 0 0
36.5642 -189.656 891.904 0 0
-325.641 -145.388 692.624 0 0
-192.462 -205.269 977.895 0 0
-113.228 -184.995 881.312 0 0
-51.6977 -180.439 859.604 0 0
7.15667 -183.323 873.347 0 0
69.7906 -191.423 911.935 0 0
-294.215 -140.247 676.946 0 0
-250.537 -141.706 683.992 0 0
-145.95 -187.485 904.957 0 0
-80.3853 -179.185 864.893 0 0
-21.174 -178.274 860.499 0 0
39.0652 -185.079 893.344 0 0
-336.705 -147.268 720.343 0 0
-189.084 -199.18 974.259 0 0
-110.576 -179.781 879.375 0 0
-49.3443 -175.726 859.54 0 0
9.59416 -179.489 877.945 0 0
72.6937 -187.496 917.111 0 0
-291.136 -135.972 674.102 0 0
-252.924 -140.329 695.703 0 0
-142.754 -181.619 900.402 0 0
-77.5762 -173.462 859.961 0 0
-18.8504 -173.834 861.805 0 0
41.7602 -181.294 898.792 0 0
-183.498 -190.814 958.985 0 0
-107.602 -174.052 874.74 0 0
-47.0688 -171.296 860.892 0 0
11.9966 -174.728 878.141 0 0
75.4412 -183.066 920.047 0 0
-291.033 -133.082 678.155 0 0
-249.928 -135.931 692.67 0 0
-140.068 -176.413 898.958 0 0
-75.3368 -169.01 861.232 0 0
-16.5221 -169.402 863.232 0 0
44.3202 -176.792 900.89 0 0
-179.999 -184.672 954.334 0 0
-105.558 -169.829 877.629 0 0
-44.6364 -166.295 859.368 0 0
14.4617 -170.692 882.089 0 0
-292.19 -130.722 685.214 0 0
-245.903 -131.008 686.715 0 0
-137.194 -170.98 896.237 0 0
-72.6224 -163.491 856.982 0 0
-14.1721 -164.795 863.819 0 0
46.8373 -172.068 901.941 0 0
-175.157 -177.195 942.317 0 0
-102.739 -164.358 874.052 0 0
-42.372 -161.92 861.089 0 0
16.9538 -166.665 886.323 0 0
-293.696 -128.454 693.189 0 0
-238.937 -124.6 672.396 0 0
-133.842 -164.968 890.237 0 0
-70.5056 -159.315 859.733 0 0
-11.812 -160.087 863.898 0 0
49.3424 -167.272 902.668 0 0
-171.58 -171.045 936.849 0 0
-100.345 -159.572 874.012 0 0
-39.9369 -156.893 859.336 0 0
19.3408 -161.522 884.69 0 0
-234.77 -119.736 665.79 0 0
-129.625 -157.928 878.153 0 0
-68.2742 -154.885 861.23 0 0
-9.47627 -155.786 866.245 0 0
51.8284 -162.395 902.992 0 0
-167.394 -164.328 927.844 0 0
-97.6968 -154.384 871.698 0 0
-37.5435 -152.015 858.32 0 0
21.7728 -156.784 885.249 0 0
-232.182 -115.714 663.595 0 0
-127.198 -153.095 877.968 0 0
-66.1077 -150.604 863.681 0 0
-7.12998 -151.508 868.869 0 0
54.5397 -158.163 907.033 0 0
-163.211 -157.664 918.571 0 0
-95.5608 -150.006 873.954 0 0
-35.2318 -147.467 859.16 0 0
24.2996 -152.617 889.164 0 0
-227.576 -110.728 655.552 0 0
-124.793 -148.289 877.929 0 0
-64.3658 -147.298 872.066 0 0
-4.76729 -147.138 871.117 0 0
57.0752 -153.356 907.927 0 0
-157.065 -149.19 897.796 0 0
-92.999 -144.959 872.332 0 0
-32.8992 -142.839 859.575 0 0
26.7529 -147.883 889.926 0 0
-226.049 -107.27 656.322 0 0
-175.888 -138.376 846.647 0 0
-122.556 -143.68 879.097 0 0
-61.4248 -141.25 864.226 0 0
-2.38263 -142.166 869.833 0 0
59.5669 -148.417 908.078 0 0
-153.52 -143.264 891.462 0 0
-90.2567 -139.637 868.888 0 0
-30.6763 -138.713 863.139 0 0
29.1689 -142.936 889.418 0 0
-224.857 -103.96 658.082 0 0
-180.702 -139.24 881.415 0 0
-119.92 -138.605 877.393 0 0
-58.9104 -136.173 861.999 0 0
-0.00500097 -137.256 868.854 0 0
-151.863 -139.105 896.06 0 0
-88.5184 -135.864 875.183 0 0
-28.3393 -134.1 863.819 0 0
31.5819 -137.995 888.91 0 0
-228.176 -102.665 673.181 0 0
-181.495 -136.836 897.246 0 0
-117.062 -133.285 873.961 0 0
-56.4901 -131.312 861.023 0 0
2.37598 -132.843 871.063 0 0
-149.451 -134.24 896.287 0 0
-85.9385 -130.794 873.276 0 0
-25.8802 -128.89 860.564 0 0
34.1493 -133.674 892.506 0 0
-183.024 -134.866 917.203 0 0
-114.561 -128.382 873.106 0 0
-53.9233 -126.106 857.632 0 0
4.76238 -128.227 872.054 0 0
-147.216 -129.529 897.595 0 0
-83.1076 -125.35 868.637 0 0
-23.5677 -124.395 862.02 0 0
36.5382 -128.616 891.268 0 0
-180.413 -129.776 916.672 0 0
-112.013 -123.431 871.855 0 0
-51.5135 -121.263 856.542 0 0
7.14594 -123.457 872.037 0 0
-144.742 -124.605 897.47 0 0
-80.8636 -120.796 870.04 0 0
-21.3556 -120.496 867.878 0 0
39.049 -123.98 892.974 0 0
-178.999 -125.531 922.299 0 0
-109.687 -118.727 872.31 0 0
-49.3943 -117.107 860.411 0 0
9.51854 -118.552 871.025 0 0
181.323 -167.204 1228.48 0 0
-141.426 -118.972 892.028 0 0
-78.5684 -116.162 870.959 0 0
-18.8126 -114.711 860.077 0 0
41.5846 -119.37 895.013 0 0
-175.595 -119.886 917.684 0 0
-107.408 -114.07 873.165 0 0
-46.8585 -111.964 857.047 0 0
11.9138 -113.928 872.077 0 0
185.365 -161.082 1233.03 0 0
-137.753 -113.082 884.104 0 0
-75.6725 -110.648 865.07 0 0
-16.5042 -110.293 862.3 0 0
43.9944 -114.382 894.267 0 0
-170.63 -113.239 904.661 0 0
-105.051 -109.327 873.414 0 0
-44.6971 -107.715 860.536 0 0
14.297 -109.156 872.041 0 0
189.417 -154.899 1237.48 0 0
-177.778 -98.3091 802.922 0 0
-134.848 -107.858 880.908 0 0
-73.1638 -105.71 863.369 0 0
-14.1988 -105.965 865.447 0 0
46.6678 -110.033 898.678 0 0
125.348 -127.614 1042.27 0 0
-167.149 -107.644 899.235 0 0
-102.55 -104.437 872.447 0 0
-42.0519 -102.298 854.583 0 0
16.614 -103.971 868.558 0 0
193.352 -148.558 1241.03 0 0
-190.099 -101.684 869.301 0 0
-132.78 -103.306 883.17 0 0
-70.6183 -100.726 861.107 0 0
-11.7915 -100.877 862.4 0 0
-164.331 -102.503 897.269 0 0
-100.333 -99.8336 873.903 0 0
-39.6938 -97.5721 854.106 0 0
19.017 -99.3738 869.878 0 0
197.635 -142.415 1246.64 0 0
-202.705 -104.668 938.679 0 0
-129.739 -98.0047 878.923 0 0
-68.314 -96.0877 861.732 0 0
-9.46603 -96.4866 865.309 0 0
155.11 -137.559 1233.66 0 0
-161.627 -97.4464 895.878 0 0
-97.3 -94.4313 868.158 0 0
-37.4072 -93.0222 855.204 0 0
21.6238 -95.6315 879.192 0 0
201.84 -136.138 1251.59 0 0
-198.619 -98.7801 931.549 0 0
-127.928 -93.6325 883.004 0 0
-65.9595 -91.3782 861.745 0 0
-7.07692 -91.448 862.403 0 0
158.839 -131.109 1236.43 0 0
-158.466 -92.1348 891.87 0 0
-94.0985 -88.9024 860.581 0 0
-35.1711 -88.6027 857.68 0 0
24.0466 -90.8989 879.907 0 0
206.15 -129.856 1257.01 0 0
-190.885 -91.209 906.905 0 0
-125.128 -88.532 880.288 0 0
-63.6 -86.6616 861.69 0 0
-4.70883 -86.5353 860.434 0 0
158.282 -121.332 1206.42 0 0
-154.429 -86.3643 882.725 0 0
-91.8248 -84.2699 861.319 0 0
-32.7534 -83.7265 855.765 0 0
26.4073 -85.9439 878.429 0 0
210.345 -123.429 1261.56 0 0
-186.713 -85.4757 898.753 0 0
-121.475 -82.8693 871.347 0 0
-60.9479 -81.5539 857.516 0 0
-2.35892 -81.9019 861.175 0 0
254.206 -119.526 1256.78 0 0
-209.001 -80.2571 868.853 0 0
-151.032 -81.0109 877.013 0 0
-88.9967 -79.1399 856.758 0 0
-30.4183 -79.0589 855.881 0 0
28.6568 -80.7147 873.806 0 0
214.593 -116.968 1266.28 0 0
-184.356 -80.606 899.239 0 0
-118.362 -77.6264 865.999 0 0
-58.4673 -76.6868 855.517 0 0
-0.00496053 -77.2525 861.828 0 0
257.454 -112.573 1255.87 0 0
-147.914 -75.8467 872.759 0 0
-87.0362 -74.7838 860.529 0 0
-28.1382 -74.5373 857.691 0 0
31.2001 -76.3164 878.164 0 0
218.419 -110.23 1268.4 0 0
-181.486 -75.5187 897.205 0 0
-115.837 -72.7929 864.821 0 0
-56.1457 -72.0314 855.774 0 0
2.36942 -73.116 868.66 0 0
259.826 -105.278 1250.76 0 0
-217.461 -75.3339 925.05 0 0
-145.553 -71.0875 872.906 0 0
-84.5004 -69.9275 858.662 0 0
-25.7522 -69.7359 856.31 0 0
33.7373 -71.8066 881.737 0 0
222.025 -103.36 1269.2 0 0
-178.67 -70.4703 895.382 0 0
-113.192 -67.8964 862.678 0 0
-53.8326 -67.3857 856.189 0 0
4.73033 -68.1724 866.185 0 0
264.008 -98.7253 1254.38 0 0
-217.597 -71.1478 936.515 0 0
-143.042 -66.2578 872.148 0 0
-82.0172 -65.1252 857.24 0 0
-23.4018 -65.0275 855.954 0 0
36.2832 -67.2378 885.048 0 0
226.195 -96.7215 1273.14 0 0
-211.576 -58.4399 797.952 0 0
-174.083 -64.7794 884.513 0 0
-110.989 -63.2684 863.881 0 0
-51.5226 -62.742 856.694 0 0
7.09617 -63.4209 865.964 0 0
267.545 -91.9047 1254.89 0 0
-209.634 -64.369 912.985 0 0
-140.922 -61.6049 873.78 0 0
-79.6548 -60.4242 857.033 0 0
-21.0094 -60.1968 853.808 0 0
38.5987 -62.2322 882.677 0 0
225.294 -88.049 1248.85 0 0
-170.259 -59.4528 877.267 0 0
-108.235 -58.334 860.758 0 0
-49.186 -58.0646 856.782 0 0
9.44349 -58.5644 864.158 0 0
271.76 -85.2908 1258.52 0 0
-205.503 -58.9089 905.775 0 0
-137.792 -56.524 869.104 0 0
-77.465 -55.8492 858.729 0 0
-18.7435 -55.7314 856.917 0 0
41.0267 -57.4281 883.006 0 0
-192.27 -46.13 740.407 0 0
-167.547 -54.5547 875.626 0 0
-105.813 -53.5933 860.195 0 0
-46.8386 -53.3745 856.683 0 0
11.6961 -53.3409 856.144 0 0
276.036 -78.6489 1262.35 0 0
-199.156 -52.9286 888.508 0 0
-134.35 -51.3649 862.259 0 0
-74.9834 -51.0632 857.193 0 0
-16.3289 -50.8217 853.139 0 0
316.323 -74.1273 1244.37 0 0
-204.86 -45.3149 797.282 0 0
-163.964 -49.4093 869.318 0 0
-103.671 -48.9899 861.94 0 0
-44.2445 -48.4149 851.823 0 0
14.2057 -49.2478 866.477 0 0
278.238 -71.4272 1256.71 0 0
-195.602 -47.7962 883.424 0 0
-130.991 -46.297 855.713 0 0
-72.3327 -46.1806 853.562 0 0
-13.9383 -45.9646 849.57 0 0
319.589 -67.2961 1243.84 0 0
-224.662 -45.3981 883.748 0 0
-161.201 -44.5497 867.234 0 0
-100.319 -43.8424 853.464 0 0
-41.9876 -43.8327 853.276 0 0
16.5974 -44.5731 867.689 0 0
281.452 -64.5064 1255.72 0 0
-194.392 -43.2346 888.933 0 0
-128.685 -41.6297 855.936 0 0
-69.7843 -41.3866 850.938 0 0
-11.6405 -41.4068 851.352 0 0
322.86 -60.472 1243.35 0 0
399.561 -59.2465 1218.15 0 0
-229.095 -41.8168 910.98 0 0
-159.298 -39.926 869.789 0 0
-97.8825 -39.1352 852.562 0 0
-39.4062 -38.922 847.918 0 0
18.9175 -39.7211 865.326 0 0
281.138 -56.8835 1239.21 0 0
363.199 -56.4759 1230.33 0 0
-191.041 -38.1908 884.667 0 0
-126.917 -37.1176 859.808 0 0
-67.138 -36.5602 846.897 0 0
-9.33609 -36.8423 853.431 0 0
327.331 -53.8512 1247.43 0 0
402.145 -52.4898 1215.9 0 0
-224.359 -36.4716 901.953 0 0
-156.007 -34.9662 864.725 0 0
-95.826 -34.5732 855.006 0 0
-37.0098 -34.2139 846.12 0 0
21.3344 -35.0754 867.426 0 0
367.601 -49.8908 1233.82 0 0
486.557 -53.7153 1328.4 0 0
519.951 -48.3764 1196.36 0 0
-187.36 -33.1311 878.745 0 0
-123.956 -32.2583 855.594 0 0
-64.9864 -32.0108 849.031 0 0
-6.99696 -32.1476 852.658 0 0
330.791 -47.0389 1247.62 0 0
404.994 -45.789 1214.47 0 0
485.869 -45.5904 1209.21 0 0
-222.118 -31.5725 902.864 0 0
-152.833 -30.0794 860.166 0 0
-93.1533 -29.7916 851.936 0 0
-34.7901 -29.6676 848.389 0 0
23.7341 -30.3699 868.472 0 0
371.108 -43.1613 1234.26 0 0
444.12 -42.0874 1203.55 0 0
518.802 -41.4826 1186.26 0 0
-184.551 -28.2648 876.811 0 0
-120.796 -27.3944 849.811 0 0
-62.7082 -27.3879 849.608 0 0
-4.66792 -27.4959 852.959 0 0
328.79 -39.567 1227.42 0 0
407.542 -39.0756 1212.18 0 0
479.707 -38.2254 1185.8 0 0
-219.482 -26.6164 902.174 0 0
-150.063 -25.3064 857.771 0 0
-90.6752 -25.0929 850.536 0 0
-32.5231 -25.0697 849.75 0 0
26.1084 -25.6225 868.487 0 0
374.163 -36.3828 1233.21 0 0
444.746 -35.2964 1196.39 0 0
-225.854 -21.8989 818.068 0 0
-181.626 -23.4033 874.267 0 0
-117.765 -22.6127 844.735 0 0
-60.1564 -22.6568 846.38 0 0
-2.33793 -22.8477 853.513 0 0
410.895 -32.4519 1212.29 0 0
481.576 -31.6526 1182.43 0 0
-219.309 -21.9135 911.708 0 0
-147.475 -20.5831 856.359 0 0
-87.988 -20.3593 847.047 0 0
-30.2778 -20.4766 851.928 0 0
28.5774 -20.9442 871.384 0 0
377.694 -29.6536 1233.74 0 0
446.512 -28.6593 1192.37 0 0
-232.601 -18.1267 850.931 0 0
-179.044 -18.6038 873.329 0 0
-115.858 -18.0574 847.678 0 0
-57.7833 -18.0112 845.508 0 0
-0.00491817 -18.2021 854.469 0 0
414.183 -25.8229 1212.22 0 0
-215.253 -16.8071 905.131 0 0
-144.972 -15.8838 855.403 0 0
-86.1384 -15.8141 851.652 0 0
-28.1238 -15.9181 857.253 0 0
31.0071 -16.2055 872.731 0 0
379.357 -22.8062 1228.2 0 0
447.763 -22.042 1187.05 0 0
-232.189 -13.5868 858.005 0 0
-175.935 -13.7729 869.759 0 0
-113.72 -13.4444 849.013 0 0
-55.4873 -13.3925 845.738 0 0
2.33732 -13.5691 856.89 0 0
418.682 -19.2504 1215.66 0 0
-210.209 -11.7157 894.198 0 0
-142.631 -11.2072 855.386 0 0
-83.4849 -11.1149 848.343 0 0
-25.7608 -11.223 856.596 0 0
33.4126 -11.4412 873.251 0 0
-241.192 -9.3354 900.366 0 0
-173.435 -9.01169 869.145 0 0
-111.569 -8.81632 850.303 0 0
-53.1388 -8.76294 845.154 0 0
4.6905 -8.90537 858.891 0 0
422.7 -12.6253 1217.66 0 0
-206.702 -6.79229 889.623 0 0
-140.718 -6.55065 857.974 0 0
-81.328 -6.49004 850.037 0 0
-23.3355 -6.5167 853.528 0 0
35.8304 -6.67303 874.004 0 0
454.718 -9.0724 1188.26 0 0
-230.808 -4.26676 870.487 0 0
-170.942 -4.25726 868.549 0 0
-109.433 -4.17502 851.77 0 0
-51.0274 -4.15879 848.459 0 0
7.06333 -4.22495 861.956 0 0
425.986 -5.96789 1217.54 0 0
-201.834 -1.90584 879.016 0 0
-139.321 -1.87297 863.857 0 0
-78.9348 -1.84138 849.287 0 0
-20.9909 -1.84956 853.058 0 0
465.493 -2.61868 1207.79 0 0
-242.745 0.522907 925.041 0 0
-167.896 0.489019 865.092 0 0
-106.742 0.479857 848.884 0 0
-48.7826 0.48035 849.755 0 0
9.39583 0.486026 859.797 0 0
-268.471 2.99986 909.404 0 0
-198.536 2.8866 875.07 0 0
-136.472 2.83946 860.779 0 0
-76.4722 2.79639 847.723 0 0
-18.7821 2.83253 858.679 0 0
-236.701 5.49832 911.504 0 0
-165.471 5.21644 864.774 0 0
-104.315 5.11539 848.022 0 0
-46.4958 5.12981 850.413 0 0
11.7312 5.17987 858.711 0 0
-252.52 7.5679 863.366 0 0
-195.623 7.6501 872.743 0 0
-133.58 7.51488 857.318 0 0
-74.0608 7.42133 846.645 0 0
-16.5553 7.58193 864.966 0 0
-230.549 10.3176 897.258 0 0
-162.39 9.90033 860.972 0 0
-102.67 9.81571 853.614 0 0
-44.1495 9.77409 849.995 0 0
14.1152 9.9001 860.953 0 0
-254.176 12.4851 877.226 0 0
-190.643 12.2545 861.027 0 0
-131.111 12.1901 856.5 0 0
-71.7065 12.0431 846.173 0 0
-14.2056 12.3233 865.858 0 0
-223.64 14.9254 879.73 0 0
-159.375 14.5468 857.413 0 0
-100.119 14.4508 851.76 0 0
-41.9049 14.4481 851.596 0 0
16.5976 14.7213 867.702 0 0
-236.467 16.2299 823.88 0 0
-185.155 16.6793 846.693 0 0
-128.727 16.8668 856.215 0 0
-69.7753 16.7607 850.828 0 0
-11.8324 17.0475 865.387 0 0
-220.671 19.6844 877.484 0 0
-156.568 19.1774 854.883 0 0
-97.6838 19.0865 850.831 0 0
-39.581 19.1055 851.679 0 0
19.0389 19.5362 870.881 0 0
-233.46 20.6671 821.226 0 0
-182.091 21.2206 843.219 0 0
-126.635 21.59 857.898 0 0
-67.8712 21.5459 856.146 0 0
-9.43323 21.7011 862.311 0 0
-216.33 24.2636 869.677 0 0
-154.055 23.8236 853.903 0 0
-95.5846 23.7942 852.852 0 0
-37.3296 23.8104 853.431 0 0
21.4922 24.3798 873.84 0 0
-240.636 26.1816 854.686 0 0
-179.106 25.7327 840.031 0 0
-123.872 26.1915 855.01 0 0
-65.567 26.2407 856.616 0 0
-7.09582 26.4886 864.706 0 0
-213.39 28.9416 867.387 0 0
-150.838 28.326 848.937 0 0
-93.1849 28.4358 852.226 0 0
-35.2845 28.71 860.446 0 0
23.8125 29.0736 871.343 0 0
-248.411 32.1632 890.951 0 0
-176.808 30.3248 840.025 0 0
-121.228 30.7879 852.854 0 0
-63.0386 30.8324 854.084 0 0
-4.72152 31.1453 862.754 0 0
-209.88 33.5016 862.703 0 0
-147.523 32.7463 843.254 0 0
-90.8526 33.0937 852.199 0 0
-33.052 33.5352 863.567 0 0
26.2163 33.8655 872.074 0 0
-247.677 37.29 897.112 0 0
-174.767 34.9681 841.252 0 0
-118.44 35.3142 849.579 0 0
-60.697 35.4974 853.986 0 0
-2.38558 36.2007 870.906 0 0
-202.268 37.2504 840.863 0 0
-145.668 37.472 845.865 0 0
-88.4938 37.74 851.916 0 0
-30.7463 38.3245 865.11 0 0
-241.895 41.6216 884.933 0 0
-172.584 39.5938 841.818 0 0
-115.485 39.7407 844.943 0 0
-58.3561 40.1615 853.889 0 0
-0.0050408 41.1908 875.774 0 0
-272.571 44.3085 890.319 0 0
-200.07 41.8683 841.286 0 0
-143.95 42.2707 849.371 0 0
-86.1903 42.4098 852.165 0 0
-28.4179 43.109 866.215 0 0
-235.391 45.6667 869.834 0 0
-170.092 44.1465 840.878 0 0
-113.264 44.3948 845.608 0 0
-56.1981 44.9704 856.572 0 0
2.3538 45.3044 862.932 0 0
-253.179 46.0886 834.427 0 0
-197.573 46.4211 840.446 0 0
-141.286 46.8008 847.32 0 0
-83.9124 47.0973 852.688 0 0
-26.1666 48.0585 870.09 0 0
-231.08 50.0037 862.618 0 0
-167.323 48.6067 838.518 0 0
-110.882 48.9865 845.07 0 0
-53.7537 49.5582 854.934 0 0
4.74461 50.3621 868.801 0 0
-251.071 50.6853 835.003 0 0
-194.428 50.7943 836.799 0 0
-139.253 51.5377 849.046 0 0
-81.7219 51.8478 854.154 0 0
-23.7627 52.7583 869.153 0 0
-228.071 54.5637 860.163 0 0
-164.785 53.1114 837.267 0 0
-109.025 53.8298 848.592 0 0
-51.6088 54.4346 858.126 0 0
7.14236 55.2893 871.6 0 0
-247.361 54.933 830.209 0 0
-192.236 55.3963 837.212 0 0
-136.493 55.9989 846.319 0 0
-79.8873 56.8734 859.535 0 0
-21.5036 57.8235 873.894 0 0
-223.718 58.7405 852.534 0 0
-160.685 57.0456 827.935 0 0
-106.774 58.5067 849.141 0 0
-49.5321 59.4486 862.811 0 0
9.65865 60.898 883.846 0 0
-254.911 61.8543 863.47 0 0
-187.833 59.3056 827.892 0 0
-133.455 60.2983 841.749 0 0
-77.7347 61.7287 861.718 0 0
-19.1245 62.6325 874.334 0 0
-216.707 62.0607 834.509 0 0
-157.364 61.1605 822.404 0 0
-104.249 63.0255 847.482 0 0
-47.0158 63.9508 859.925 0 0
12.1768 66.2864 891.33 0 0
-256.135 67.5197 875.727 0 0
-184.357 63.4146 822.483 0 0
-129.841 64.2502 833.321 0 0
-75.3321 66.3981 861.179 0 0
-16.8379 67.8288 879.735 0 0
-212.454 66.0101 826.834 0 0
-154.782 65.515 820.632 0 0
-101.268 67.2178 841.961 0 0
-44.6699 68.659 860.014 0 0
14.6775 71.4721 895.25 0 0
-248.231 70.7368 856.708 0 0
-182.125 67.917 822.556 0 0
-127.164 68.5907 830.715 0 0
-72.3439 70.4881 853.695 0 0
-14.3858 72.3994 876.843 0 0
-209.542 70.3116 824.27 0 0
-152.506 69.9865 820.458 0 0
-99.0923 71.9117 843.028 0 0
-42.4593 73.6036 862.862 0 0
17.1982 76.6945 899.097 0 0
-244.611 75.0283 852.255 0 0
-178.806 71.9826 817.658 0 0
-125.44 73.4521 834.35 0 0
-70.2334 75.3945 856.414 0 0
-11.9869 77.1794 876.689 0 0
-248.628 70.564 777.406 0 0
-206.737 74.6188 822.078 0 0
-150.17 74.4257 819.951 0 0
-96.6664 76.4243 841.969 0 0
-40.2635 78.6386 866.364 0 0
19.6815 81.7164 900.272 0 0
-241.344 79.3792 848.958 0 0
-176.083 76.2413 815.398 0 0
-123.236 78.062 834.87 0 0
-68.1292 80.3556 859.401 0 0
-9.64996 82.4802 882.122 0 0
-256.983 77.9946 810.457 0 0
-203.119 78.5824 816.565 0 0
-147.247 78.5446 816.172 0 0
-94.8179 81.4162 846.011 0 0
-37.9707 83.5408 868.088 0 0
22.3129 87.3056 907.209 0 0
-233.958 82.2399 830.968 0 0
-172.309 79.9818 808.152 0 0
-120.63 82.4046 832.632 0 0
-65.9686 85.2976 861.863 0 0
-7.25424 87.4896 884.012 0 0
-256.221 82.8956 815.081 0 0
-199.766 82.5832 812.009 0 0
-144.325 82.6106 812.279 0 0
-92.7493 86.2681 848.242 0 0
-35.8519 88.9164 874.281 0 0
24.8127 92.3396 907.94 0 0
-230.916 86.4939 828.202 0 0
-170.454 84.5754 809.833 0 0
-118.259 86.8866 831.963 0 0
-63.7049 90.1396 863.111 0 0
-4.8583 92.7125 887.747 0 0
-259.393 89.2085 832.409 0 0
-196.779 86.6844 808.856 0 0
-141.833 86.885 810.728 0 0
-90.5242 90.9993 849.118 0 0
-33.5016 93.8066 875.314 0 0
-227.883 90.7156 825.418 0 0
-166.506 88.0855 801.487 0 0
-115.727 91.232 830.117 0 0
-61.5798 95.2202 866.406 0 0
-2.45013 98.3049 894.474 0 0
-267.808 97.6576 867.02 0 0
-192.734 90.2471 801.228 0 0
-139.821 91.4506 811.913 0 0
-88.2577 95.7004 849.644 0 0
-31.0951 98.5478 874.923 0 0
-222.699 93.9921 814.706 0 0
-163.234 91.8583 796.21 0 0
-113.662 95.9423 831.61 0 0
-59.1073 99.7807 864.88 0 0
-0.00515649 103.356 895.873 0 0
-259.921 100.269 848.999 0 0
-190.236 94.4745 799.934 0 0
-136.492 95.1159 805.365 0 0
-86.0739 100.507 851.014 0 0
-28.7469 103.487 876.243 0 0
-219.736 98.1172 811.985 0 0
-160.805 96.0606 794.965 0 0
-111.879 100.931 835.269 0 0
-56.7798 104.576 865.438 0 0
2.44519 108.322 896.437 0 0
-253.739 103.338 836.273 0 0
-186.109 97.8279 791.682 0 0
-133.377 98.8414 799.884 0 0
-83.4544 104.791 848.034 0 0
-26.4193 108.555 878.491 0 0
-261.162 98.1078 776.765 0 0
-215.402 101.56 804.094 0 0
-157.953 99.9764 791.559 0 0
-108.887 104.814 829.863 0 0
-54.4798 109.439 866.482 0 0
4.91302 113.627 899.639 0 0
-249.095 106.898 828.429 0 0
-183.272 101.782 788.782 0 0
-130.996 103.062 798.701 0 0
-81.403 109.787 850.821 0 0
-24.0632 113.571 880.143 0 0
-260.76 103.034 781.926 0 0
-212.074 105.394 799.831 0 0
-154.94 103.736 787.248 0 0
-106.093 108.813 825.777 0 0
-52.0901 114.13 866.13 0 0
7.37748 118.632 900.293 0 0
-245.272 110.723 823.198 0 0
-179.931 105.4 783.625 0 0
-128.876 107.481 799.091 0 0
-78.9252 114.218 849.183 0 0
-21.6528 118.357 879.958 0 0
-261.257 108.402 789.89 0 0
-208.864 109.231 795.929 0 0
-152.881 108.105 787.725 0 0
-103.669 113.145 824.449 0 0
-49.8142 119.084 867.726 0 0
9.83517 123.513 899.999 0 0
-240.794 114.167 815.654 0 0
-177.671 109.611 783.103 0 0
-126.38 111.574 797.124 0 0
-76.5666 118.802 848.769 0 0
-19.2428 123.138 879.745 0 0
-259.588 112.934 791.386 0 0
-205.332 112.837 790.708 0 0
-149.425 111.439 780.915 0 0
-101.7 117.982 826.763 0 0
-47.3661 123.629 866.331 0 0
12.3011 128.495 900.43 0 0
-237.386 118.04 811.622 0 0
-174.888 113.476 780.24 0 0
-124.098 115.835 796.463 0 0
-73.8425 122.771 844.15 0 0
-16.908 128.479 883.396 0 0
-261.211 118.985 803.024 0 0
-202.433 116.734 787.837 0 0
-146.563 115.138 777.061 0 0
-99.1468 122.14 824.322 0 0
-44.9721 128.291 865.83 0 0
14.8116 133.862 903.432 0 0
-232.353 121.011 801.909 0 0
-171.599 116.953 775.013 0 0
-122.011 120.278 797.049 0 0
-71.5763 127.459 844.636 0 0
-14.5102 133.463 884.424 0 0
-260.551 124.106 807.783 0 0
-199.536 120.591 784.909 0 0
-144.437 119.383 777.046 0 0
-97.0696 126.877 825.82 0 0
-42.5485 132.846 864.675 0 0
17.3026 138.974 904.555 0 0
-228.79 124.649 797.134 0 0
-169.103 120.92 773.288 0 0
-119.624 124.419 795.665 0 0
-69.3171 132.171 845.241 0 0
-12.1 138.382 884.96 0 0
-269.579 134.112 842.917 0 0
-196.23 124.149 780.297 0 0
-142.204 123.537 776.456 0 0
-94.979 131.622 827.272 0 0
-40.3018 137.973 867.188 0 0
19.8202 144.247 906.618 0 0
-225.788 128.538 794.237 0 0
-166.436 124.733 770.726 0 0
-117.657 128.997 797.076 0 0
-67.1571 137.099 847.138 0 0
-9.70897 143.634 887.516 0 0
-265.768 137.937 838.163 0 0
-193.072 127.736 776.175 0 0
-139.619 127.36 773.888 0 0
-92.4799 135.796 825.15 0 0
-37.955 142.803 867.729 0 0
22.3192 149.343 907.465 0 0
-222.309 132.103 789.594 0 0
-163.646 128.41 767.521 0 0
-115.468 133.342 797.004 0 0
-64.922 141.906 848.189 0 0
-7.27396 148.301 886.414 0 0
-257.894 139.5 820.403 0 0
-189.595 131.042 770.665 0 0
-136.803 130.92 769.947 0 0
-90.0734 140.072 823.77 0 0
-35.6087 147.653 868.351 0 0
24.8412 154.562 908.982 0 0
-266.652 132.708 768.114 0 0
-218.964 135.683 785.335 0 0
-160.705 131.914 763.518 0 0
-112.787 137.089 793.469 0 0
-62.7559 146.9 850.255 0 0
-4.86851 153.7 889.613 0 0
-253.561 142.807 813.693 0 0
-186.296 134.395 765.764 0 0
-134.298 134.728 767.659 0 0
-88.0062 144.879 825.5 0 0
-33.2865 152.635 869.693 0 0
27.3392 159.609 909.428 0 0
-270.83 140.156 786.34 0 0
-215.043 138.831 778.909 0 0
-158.039 135.591 760.731 0 0
-110.792 141.648 794.713 0 0
-60.4944 151.705 851.134 0 0
-2.43737 158.599 889.813 0 0
-249.911 146.42 809.077 0 0
-183.589 138.12 763.214 0 0
-132.645 139.392 770.244 0 0
-86.2759 150.309 830.565 0 0
-31.108 158.402 875.286 0 0
-263.173 141.494 770.222 0 0
-211.596 142.204 774.089 0 0
-155.044 138.929 756.262 0 0
-108.76 146.182 795.742 0 0
-58.3746 156.914 854.159 0 0
-0.00512843 163.681 890.998 0 0
-244.743 149.043 799.421 0 0
-180.584 141.572 759.349 0 0
-130.335 143.378 769.035 0 0
-85.8335 158.219 848.638 0 0
-28.7714 163.505 876.991 0 0
-270.651 151.053 798.494 0 0
-208.29 145.604 769.691 0 0
-152.722 142.826 755.006 0 0
-106.78 150.808 797.202 0 0
-56.6915 163.462 864.093 0 0
2.43302 168.737 891.977 0 0
-241.664 152.848 796.475 0 0
-177.943 145.262 756.944 0 0
-127.952 147.259 767.351 0 0
-84.8197 165.405 861.908 0 0
-26.4788 168.967 880.469 0 0
-263.132 152.329 782.624 0 0
-205.23 149.117 766.122 0 0
-149.984 146.296 751.627 0 0
-104.836 155.514 798.988 0 0
-55.1822 170.826 877.654 0 0
4.87414 173.719 892.519 0 0
-237.167 155.679 788.76 0 0
-174.179 147.96 749.648 0 0
-125.959 151.579 767.985 0 0
-82.9226 171.063 866.703 0 0
-24.1219 174.14 882.292 0 0
-253.821 152.304 761.119 0 0
-200.886 151.607 757.635 0 0
-148.096 150.574 752.473 0 0
-102.783 160.087 800.012 0 0
-53.2207 177.079 884.928 0 0
7.31132 178.538 892.219 0 0
-233.197 158.757 782.673 0 0
-172.26 152.173 750.217 0 0
-124.064 156.035 769.256 0 0
-80.9187 176.598 870.633 0 0
-21.7654 179.418 884.532 0 0
-263.174 163.571 795.685 0 0
-198.726 155.679 757.296 0 0
-146.189 154.846 753.243 0 0
-100.277 163.938 797.471 0 0
-50.9914 182.596 888.231 0 0
9.7499 183.411 892.196 0 0
-229.504 161.939 777.409 0 0
-169.601 155.716 747.533 0 0
-121.934 160.204 769.079 0 0
-78.656 181.628 871.931 0 0
-19.5388 186.075 893.277 0 0
-267.565 172.146 815.703 0 0
-196.012 159.296 754.815 0 0
-143.747 158.542 751.244 0 0
-98.6669 169.275 802.103 0 0
-48.8435 188.533 893.352 0 0
12.2425 189.121 896.141 0 0
-226.311 165.408 773.758 0 0
-167.077 159.344 745.39 0 0
-119.72 164.256 768.365 0 0
-76.4459 186.819 873.911 0 0
-17.1389 191.425 895.458 0 0
-265.736 176.872 816.936 0 0
-192.808 162.461 750.376 0 0
-141.613 162.556 750.812 0 0
-96.5592 173.813 802.809 0 0
-46.706 194.686 899.214 0 0
14.7587 194.9 900.203 0 0
-222.092 168.046 766.496 0 0
-164.696 163.079 743.839 0 0
-117.282 167.973 766.162 0 0
-75.7588 195.999 893.992 0 0
-14.7153 196.643 896.929 0 0
-260.599 179.339 807.932 0 0
-189.51 165.475 745.471 0 0
-139.201 166.231 748.879 0 0
-94.7186 178.87 805.819 0 0
-44.0612 198.758 895.416 0 0
17.1712 199.262 897.687 0 0
-219.023 171.474 763.103 0 0
-161.937 166.4 740.521 0 0
-115.109 172.043 765.635 0 0
-74.2749 203.516 905.695 0 0
-12.2553 201.409 896.321 0 0
-254.742 181.161 796.523 0 0
-186.412 168.591 741.255 0 0
-137.254 170.45 749.427 0 0
-92.7057 183.651 807.471 0 0
-41.5661 203.421 894.393 0 0
19.5533 203.424 894.409 0 0
-278.373 181.709 789.445 0 0
-214.783 173.902 755.525 0 0
-159.131 169.614 736.898 0 0
-113.487 176.963 768.824 0 0
-71.4323 207.402 901.067 0 0
-9.76314 205.422 892.468 0 0
-251.105 184.443 791.919 0 0
-183.929 172.216 739.418 0 0
-134.527 173.67 745.665 0 0
-91.119 189.355 813.007 0 0
-38.9964 207.645 891.536 0 0
21.9665 208.015 893.123 0 0
-269.726 181.655 770.898 0 0
-211.894 177.343 752.601 0 0
-157.068 173.589 736.67 0 0
-111.247 180.941 767.869 0 0
-68.8976 212.107 900.13 0 0
-7.31943 210.181 891.956 0 0
-247.271 187.507 786.61 0 0
-181.431 175.796 737.482 0 0
-132.656 177.971 746.605 0 0
-89.29 194.657 816.604 0 0
-36.517 212.272 890.502 0 0
24.3897 212.739 892.461 0 0
-280.964 195.138 809.34 0 0
-208.656 180.436 748.365 0 0
-154.393 176.859 733.527 0 0
-109.392 185.552 769.584 0 0
-66.3819 216.847 899.382 0 0
-4.87458 214.76 890.722 0 0
-243.384 190.448 781.036 0 0
-178.905 179.316 735.382 0 0
-130.538 181.945 746.163 0 0
-87.3357 199.757 819.21 0 0
-34.041 216.874 889.407 0 0
26.7557 217.022 890.017 0 0
-257.946 184.667 748.932 0 0
-204.802 182.913 741.816 0 0
-152.534 181.042 734.229 0 0
-106.632 188.599 764.879 0 0
-63.8169 221.394 897.882 0 0
-2.43677 219.352 889.597 0 0
-239.519 193.322 775.434 0 0
-176.394 182.817 733.301 0 0
-128.113 185.467 743.928 0 0
-85.799 205.922 825.974 0 0
-31.5809 221.533 888.594 0 0
-260.703 192.306 762.994 0 0
-201.668 185.947 737.767 0 0
-150.106 184.539 732.178 0 0
-104.918 193.474 767.631 0 0
-61.2517 225.894 896.259 0 0
-0.00510852 223.697 887.54 0 0
-234.802 195.399 766.949 0 0
-174.021 186.432 731.753 0 0
-125.961 189.355 743.227 0 0
-83.9863 211.558 830.374 0 0
-29.0523 225.616 885.553 0 0
-259.395 197.068 765.288 0 0
-198.601 188.982 733.887 0 0
-147.617 187.92 729.765 0 0
-102.918 197.861 768.368 0 0
-58.6788 230.311 894.383 0 0
2.41739 228.216 886.247 0 0
-231.696 198.726 763.623 0 0
-170.698 188.968 726.124 0 0
-123.435 192.647 740.263 0 0
-82.8021 218.968 841.405 0 0
-26.6174 230.334 885.079 0 0
-260.022 203.377 773.373 0 0
-195.34 191.762 729.203 0 0
-145.307 191.495 728.188 0 0
-101.313 203.054 772.141 0 0
-56.0288 234.342 891.118 0 0
4.82417 232.303 883.368 0 0
-227.585 201.113 756.893 0 0
-168.362 192.535 724.613 0 0
-121.542 196.904 741.054 0 0
-82.2318 228.372 859.483 0 0
-24.1782 234.979 884.351 0 0
-263.623 212.206 790.511 0 0
-192.463 194.853 725.867 0 0
-143.085 195.16 727.013 0 0
-99.4299 207.75 773.912 0 0
-53.5054 238.822 889.662 0 0
7.23214 236.915 882.557 0 0
-223.979 203.852 751.735 0 0
-165.981 196.024 722.871 0 0
-119.535 200.988 741.175 0 0
-81.2501 237.061 874.198 0 0
-21.7485 239.677 883.847 0 0
-262.073 217.034 792.358 0 0
-189.467 197.765 722.011 0 0
-140.642 198.49 724.66 0 0
-97.9176 213.295 778.708 0 0
-50.8878 242.799 886.426 0 0
9.64095 241.649 882.227 0 0
-220.071 206.224 745.456 0 0
-163.693 199.596 721.495 0 0
-117.284 204.646 739.751 0 0
-79.8669 244.926 885.354 0 0
-19.2656 243.663 880.787 0 0
-256.887 218.793 783.151 0 0
-187.244 201.444 721.051 0 0
-138.34 201.984 722.984 0 0
-96.2697 218.643 782.616 0 0
-48.3942 247.285 885.135 0 0
12.0129 245.664 879.332 0 0
-216.369 208.695 739.767 0 0
-161.137 202.805 718.888 0 0
-115.005 208.225 738.102 0 0
-78.0258 251.633 891.973 0 0
-16.8419 248.239 879.941 0 0
-251.966 220.64 774.604 0 0
-184.651 204.697 718.633 0 0
-136.316 205.864 722.731 0 0
-94.3096 223.346 784.105 0 0
-45.9978 252.25 885.578 0 0
14.3919 250.043 877.829 0 0
-212.314 210.721 732.752 0 0
-158.818 206.275 717.29 0 0
-113.434 213.099 741.019 0 0
-75.5318 256.32 891.314 0 0
-14.4229 252.808 879.103 0 0
-248.49 223.651 770.39 0 0
-181.817 207.632 715.211 0 0
-133.906 209.136 720.39 0 0
-93.163 230.094 792.584 0 0
-43.3367 255.673 880.692 0 0
16.7168 253.711 873.934 0 0
-209.267 213.661 729.113 0 0
-156.447 209.647 715.414 0 0
-111.789 217.892 743.551 0 0
-72.9217 260.572 889.195 0 0
-11.9834 256.833 876.435 0 0
-244.915 226.504 765.796 0 0
-179.458 211.066 713.602 0 0
-131.711 212.711 719.162 0 0
-91.8695 236.676 800.188 0 0
-40.9378 260.541 880.873 0 0
19.1785 259.474 877.266 0 0
-205.651 215.943 723.404 0 0
-154.292 213.283 714.493 0 0
-109.905 222.259 744.561 0 0
-70.374 264.992 887.717 0 0
-9.58264 261.485 875.969 0 0
-241.275 229.221 760.918 0 0
-176.836 214.155 710.906 0 0
-129.627 216.443 718.502 0 0
-90.0733 242.102 803.677 0 0
-38.4753 264.98 879.624 0 0
21.5906 264.443 877.841 0 0
-202.09 218.187 717.777 0 0
-151.955 216.641 712.692 0 0
-108.064 226.736 745.9 0 0
-67.8268 269.365 886.14 0 0
-7.21037 267.093 878.665 0 0
-236.38 230.635 751.964 0 0
-174.284 217.282 708.431 0 0
-127.275 219.702 716.32 0 0
-88.7973 249.079 812.099 0 0
-35.9397 268.807 876.423 0 0
23.942 268.702 876.078 0 0
-199.269 221.158 714.697 0 0
-149.304 219.503 709.35 0 0
-105.863 230.459 744.754 0 0
-65.444 274.375 886.674 0 0
-4.80008 271.415 877.109 0 0
-232.616 233.033 746.479 0 0
-171.732 220.365 705.899 0 0
-125.899 224.657 719.649 0 0
-87.9256 257.466 824.743 0 0
-33.5701 273.811 877.103 0 0
-196.377 223.995 711.299 0 0
-147.238 223.189 708.74 0 0
-104.375 235.768 748.685 0 0
-62.7538 278.041 882.924 0 0
-2.39381 275.204 873.912 0 0
-228.41 234.887 739.468 0 0
-169.506 223.832 704.666 0 0
-124.181 229.051 721.096 0 0
-87.2662 266.852 840.099 0 0
-31.0493 277.504 873.634 0 0
-193.646 226.962 708.421 0 0
-144.832 226.332 706.454 0 0
-102.917 241.241 752.992 0 0
-60.3039 282.698 882.391 0 0
-0.00504066 280.57 875.749 0 0
-223.969 236.377 731.566 0 0
-167.176 227.137 702.969 0 0
-121.976 232.546 719.711 0 0
-87.1524 278.417 861.678 0 0
-28.7628 283.281 876.731 0 0
-240.185 230.897 708.612 0 0
-190.287 229.122 703.165 0 0
-142.669 229.82 705.307 0 0
-101.163 246.098 755.264 0 0
-57.7746 286.939 880.602 0 0
2.38183 284.529 873.207 0 0
-221.264 239.612 729.242 0 0
-164.628 230.104 700.303 0 0
-119.764 236 718.249 0 0
-86.6931 289.458 880.944 0 0
-26.276 287.086 873.726 0 0
-239.824 236.323 713.298 0 0
-188.453 233.075 703.494 0 0
-140.296 232.936 703.074 0 0
-99.3792 250.936 757.403 0 0
-55.3308 291.559 880.017 0 0
4.75881 288.704 871.401 0 0
-216.739 240.786 720.822 0 0
-162.103 233.055 697.676 0 0
-117.303 238.911 715.209 0 0
-84.7018 295.729 885.299 0 0
-23.8013 290.807 870.564 0 0
-252.459 254.952 757.035 0 0
-185.138 235.152 698.241 0 0
-138.57 237.115 704.072 0 0
-97.9955 256.876 762.747 0 0
-52.7395 295.329 876.928 0 0
7.12394 292.778 869.352 0 0
-212.617 242.275 713.601 0 0
-159.492 235.827 694.609 0 0
-115.941 244.069 718.885 0 0
-82.0092 299.573 882.366 0 0
-21.4066 295.359 869.954 0 0
-254.325 263.163 768.932 0 0
-182.574 238.115 695.746 0 0
-136.174 240.133 701.641 0 0
-97.0766 264.219 772.02 0 0
-50.303 299.888 876.24 0 0
9.49864 297.48 869.205 0 0
-209.019 244.252 708.021 0 0
-157.354 239.261 693.556 0 0
-113.656 247.305 716.871 0 0
-79.4534 303.846 880.77 0 0
-18.9403 298.721 865.915 0 0
-248.856 263.797 758.666 0 0
-179.855 240.823 692.596 0 0
-133.952 243.415 700.051 0 0
-95.8133 270.834 778.905 0 0
-47.8472 304.292 875.13 0 0
11.8791 302.349 869.541 0 0
-206.477 247.395 705.946 0 0
-155.76 243.524 694.9 0 0
-112.194 252.343 720.065 0 0
-76.7636 307.53 877.544 0 0
-16.6138 304.195 868.027 0 0
-243.527 264.41 748.659 0 0
-178.176 244.904 693.43 0 0
-132.196 247.538 700.886 0 0
-94.4157 277.24 784.987 0 0
-45.4541 309.07 875.112 0 0
-202.756 249.054 699.764 0 0
-152.894 245.769 690.534 0 0
-110.377 256.63 721.049 0 0
-74.1906 311.596 875.487 0 0
-14.2267 308.627 867.146 0 0
-239.305 266.084 741.916 0 0
-175.701 247.877 691.15 0 0
-130.024 250.874 699.506 0 0
-94.3315 287.821 802.525 0 0
-42.9471 313.016 872.775 0 0
16.6429 312.046 870.069 0 0
-239.189 243.245 673.104 0 0
-199.089 250.67 693.651 0 0
-150.679 249.003 689.037 0 0
-108.626 261.1 722.512 0 0
-71.7544 316.192 874.96 0 0
-11.8266 312.581 864.968 0 0
-235.543 268.165 736.492 0 0
-172.946 250.403 687.708 0 0
-128.062 254.601 699.238 0 0
-93.7769 297.407 816.801 0 0
-40.4436 316.864 870.24 0 0
-242.853 252.652 688.715 0 0
-197.447 254.79 694.544 0 0
-148.61 252.455 688.178 0 0
-106.72 265.221 722.979 0 0
-69.4332 321.301 875.85 0 0
-9.44955 316.882 863.802 0 0
-240.542 230.655 624.103 0 0
-231.012 269.258 728.553 0 0
-170.585 253.447 685.774 0 0
-126.303 258.735 700.081 0 0
-93.0095 306.704 829.876 0 0
-38.02 321.243 869.215 0 0
-249.188 265.16 712.199 0 0
-194.146 256.733 689.564 0 0
-146.589 255.974 687.525 0 0
-104.736 269.154 722.925 0 0
-66.9696 325.751 874.941 0 0
-7.07287 320.899 861.909 0 0
-250.181 245.186 653.75 0 0
-225.655 269.224 717.844 0 0
-168.611 257.045 685.37 0 0
-124.031 261.805 698.063 0 0
-94.8736 325.415 867.669 0 0
-35.5569 325.197 867.088 0 0
-243.214 264.671 700.599 0 0
-191.454 259.409 686.669 0 0
-145.144 260.51 689.584 0 0
-103.076 273.946 725.149 0 0
-64.3929 329.587 872.432 0 0
-4.69582 324.156 858.057 0 0
-220.648 269.431 708.074 0 0
-166.155 259.88 682.974 0 0
-121.987 265.327 697.289 0 0
-94.5698 337.54 887.067 0 0
-33.0541 328.619 863.622 0 0
-260.002 289.313 754.902 0 0
-188.886 262.203 684.164 0 0
-142.356 262.615 685.239 0 0
-101.519 279.081 728.204 0 0
-61.8692 333.607 870.478 0 0
-2.35476 329.46 859.658 0 0
-216.991 271.151 702.501 0 0
-164 263.152 681.778 0 0
-119.841 268.599 695.891 0 0
-92.0234 341.937 885.895 0 0
-30.7951 334.444 866.482 0 0
-233.465 265.598 683.276 0 0
-186.178 264.752 681.1 0 0
-140.615 266.611 685.882 0 0
-100.276 285.187 733.671 0 0
-59.3739 337.706 868.782 0 0
-0.0049491 334.232 859.842 0 0
-213.56 273.06 697.567 0 0
-162.034 266.711 681.348 0 0
-118.093 272.761 696.804 0 0
-89.4373 346.143 884.268 0 0
-28.3332 338.066 863.634 0 0
-248.866 289.416 734.224 0 0
-183.677 267.544 678.737 0 0
-138.042 269.001 682.433 0 0
-98.9018 291.055 738.383 0 0
-56.8791 341.735 866.953 0 0
2.33629 337.619 856.512 0 0
-210.325 275.135 693.188 0 0
-159.957 270.074 680.435 0 0
-116.025 276.182 695.825 0 0
-86.7558 349.911 881.581 0 0
-25.8472 341.134 859.468 0 0
-240.315 285.651 714.76 0 0
-180.683 269.556 674.486 0 0
-135.941 272.258 681.248 0 0
-97.8136 297.925 745.471 0 0
-54.3802 345.653 864.898 0 0
4.67067 341.802 855.261 0 0
-263.491 287.312 714.032 0 0
-207.28 277.386 689.363 0 0
-157.736 273.168 678.88 0 0
-115.079 282.329 701.649 0 0
-84.0975 353.685 878.983 0 0
-23.421 344.7 856.653 0 0
-245.101 297.746 734.971 0 0
-178.254 272.349 672.279 0 0
-134.161 276.153 681.668 0 0
-96.6485 304.752 752.263 0 0
-52.0441 350.571 865.365 0 0
7.0133 346.716 855.85 0 0
-252.925 281.623 690.513 0 0
-204.01 279.258 684.714 0 0
-155.719 276.592 678.178 0 0
-113.337 286.61 702.739 0 0
-81.5465 357.839 877.387 0 0
-21.066 349.161 856.109 0 0
-241.496 299.782 730.143 0 0
-176.447 276.072 672.396 0 0
-132.4 280.096 682.195 0 0
-95.9547 313.313 763.098 0 0
-49.5845 354.628 863.725 0 0
-278.22 316.301 765.281 0 0
-200.724 281.02 679.92 0 0
-153.799 280.179 677.884 0 0
-111.536 290.764 703.496 0 0
-78.5717 359.995 870.997 0 0
-18.6977 353.309 854.821 0 0
-236.785 300.33 721.867 0 0
-174.334 279.308 671.338 0 0
-130.389 283.506 681.429 0 0
-96.2867 325.662 782.754 0 0
-47.1528 358.811 862.429 0 0
-223.061 258.893 618.207 0 0
-198.07 283.599 677.202 0 0
-151.112 282.328 674.166 0 0
-109.496 294.297 702.748 0 0
-75.9377 363.544 868.102 0 0
-16.3268 357.232 853.031 0 0
-232.047 300.694 713.367 0 0
-171.963 282.098 669.25 0 0
-128.403 286.958 680.779 0 0
-96.8333 339.355 805.087 0 0
-44.5786 361.766 858.255 0 0
-230.184 272.714 642.818 0 0
-195.638 286.451 675.198 0 0
-149.363 286.193 674.59 0 0
-108.174 299.798 706.659 0 0
-73.479 367.86 867.089 0 0
-13.9812 361.535 852.181 0 0
-227.05 300.56 703.919 0 0
-170.093 285.689 669.092 0 0
-126.848 291.382 682.424 0 0
-98.5576 358.014 838.479 0 0
-42.1642 365.865 856.866 0 0
-259.638 313.971 730.651 0 0
-192.645 288.424 671.199 0 0
-146.945 288.753 671.965 0 0
-106.326 303.899 707.213 0 0
-71.0033 372.047 865.802 0 0
-11.6646 366.597 853.119 0 0
-222.649 301.059 696.176 0 0
-167.584 288.177 666.387 0 0
-124.747 294.556 681.137 0 0
-99.6912 375.501 868.315 0 0
-39.7571 369.945 855.468 0 0
-245.061 302.44 694.976 0 0
-190.138 291.065 668.836 0 0
-145.104 292.417 671.944 0 0
-105.073 309.771 711.821 0 0
-68.4023 375.494 862.845 0 0
-9.2957 369.79 849.738 0 0
-218.537 301.814 689.208 0 0
-165.799 291.885 666.534 0 0
-122.914 298.348 681.293 0 0
-98.4124 384.525 878.083 0 0
-37.2233 372.665 851 0 0
