ply
format ascii 1.0
element vertex 1187
property float x
property float y
property float z
property float u
property float v
end_header
-51.045 324.454 811.852 908.955 924.454
-18.5014 338.04 845.848 941.499 938.04
18.3358 383.09 958.572 978.336 983.09
56.7052 376.885 943.047 1016.71 976.885
94.9275 375.131 938.657 1054.93 975.131
132.409 372.305 931.587 1092.41 972.305
169.429 369.737 925.161 1129.43 969.737
529.675 450.25 1126.62 1489.67 1050.25
563.625 440.678 1102.67 1523.62 1040.68
-1146.49 675.078 1677.71 -186.488 1275.08
-1063.73 666.327 1655.97 -103.729 1266.33
-1016.93 680.441 1691.04 -56.9257 1280.44
-975.035 700.148 1740.02 -15.0347 1300.15
-921.463 713.916 1774.23 38.5373 1313.92
-786.845 661.872 1644.89 173.155 1261.87
-710.999 654.14 1625.68 249.001 1254.14
-721.781 732.755 1821.05 238.219 1332.76
-154.37 324.623 806.757 805.63 924.623
-118.216 316.393 786.304 841.784 916.393
-86.1106 316.885 787.527 873.889 916.885
-55.0263 323.983 805.166 904.974 923.983
-22.9993 338.495 841.232 937.001 938.495
13.2412 390.003 969.241 973.241 990.003
51.6957 380.538 945.718 1011.7 980.538
89.8322 377.849 939.036 1049.83 977.849
127.469 375.303 932.709 1087.47 975.303
164.275 372.049 924.621 1124.28 972.049
529.453 458.471 1139.4 1489.45 1058.47
556.79 443.05 1101.07 1516.79 1043.05
-1149.97 676.316 1669.45 -189.968 1276.32
-1078.26 674.282 1664.43 -118.265 1274.28
-1017.33 679.159 1676.47 -57.326 1279.16
-983.247 703.973 1737.72 -23.2472 1303.97
-939.558 725.247 1790.23 20.4419 1325.25
-798.809 668.856 1651.03 161.191 1268.86
-718.124 656.972 1621.7 241.876 1256.97
-719.482 725.378 1790.56 240.518 1325.38
-159.353 328.006 809.666 800.647 928.006
-122.417 318.288 785.676 837.583 918.288
-90.3909 318.949 787.309 869.609 918.949
-59.2729 325.332 803.064 900.727 925.332
-27.4566 339.045 836.914 932.543 939.045
7.88989 390.052 962.823 967.89 990.052
46.3685 381.829 942.525 1006.37 981.829
84.5233 379.628 937.091 1044.52 979.628
122.187 377.286 931.309 1082.19 977.286
159.235 374.611 924.707 1119.23 974.611
197.017 374.359 924.085 1157.02 974.359
551.078 446.308 1101.69 1511.08 1046.31
-1151.03 676.142 1657.84 -191.031 1276.14
-1069.04 667.389 1636.37 -109.036 1267.39
-1027.99 684.743 1678.92 -67.9946 1284.74
-988.411 705.628 1730.13 -28.4109 1305.63
-953.134 733.054 1797.38 6.86646 1333.05
-807.716 673.27 1650.79 152.284 1273.27
-724.121 658.795 1615.3 235.879 1258.79
-712.5 713.479 1749.38 247.5 1313.48
-164.779 332.235 814.609 795.221 932.235
-126.914 320.944 786.924 833.086 920.944
-94.6381 320.908 786.836 865.362 920.908
-63.4686 326.526 800.61 896.531 926.526
-31.8329 339.212 831.715 928.167 939.212
2.5321 378.604 928.301 962.532 978.604
41.5842 387.842 950.95 1001.58 987.842
79.562 382.968 939 1039.56 982.968
116.955 379.376 930.193 1076.96 979.376
153.975 376.638 923.48 1113.98 976.638
191.948 376.852 924.004 1151.95 976.852
544.948 449.231 1101.47 1504.95 1049.23
-1209.12 709.438 1727.89 -249.118 1309.44
-1076.63 671.017 1634.31 -116.625 1271.02
-1030.24 684.722 1667.69 -70.2367 1284.72
-998.785 711.009 1731.72 -38.7855 1311.01
-957.447 733.743 1787.09 2.55261 1333.74
-820.223 680.672 1657.83 139.777 1280.67
-731.583 661.972 1612.28 228.417 1261.97
-712.918 709.163 1727.22 247.082 1309.16
-169.471 334.934 815.759 790.529 934.934
-131.256 323.194 787.164 828.744 923.194
-98.5711 321.856 783.905 861.429 921.856
-67.6444 327.741 798.238 892.356 927.741
-36.0526 338.414 824.235 923.947 938.414
-2.44481 366.456 892.532 957.555 966.456
36.7094 393.916 959.414 996.709 993.916
74.3164 384.953 937.584 1034.32 984.953
112.053 382.544 931.716 1072.05 982.544
148.836 378.933 922.92 1108.84 978.933
185.772 377.095 918.446 1145.77 977.095
543.158 455.793 1110.12 1503.16 1055.79
-1206.85 707.299 1711.29 -246.854 1307.3
-1087.13 676.462 1636.68 -127.131 1276.46
-1035.28 686.579 1661.16 -75.2809 1286.58
-1012.11 718.481 1738.34 -52.1099 1318.48
-965.63 737.415 1784.15 -5.62952 1337.42
-824.83 681.522 1648.92 135.17 1281.52
-737.69 663.943 1606.39 222.31 1263.94
-699.945 691.732 1673.63 260.055 1291.73
-175.692 340.578 824.019 784.308 940.578
-136.183 326.844 790.79 823.817 926.844
-103.204 325.092 786.55 856.796 925.092
-71.7911 328.928 795.831 888.209 928.927
-40.3582 338.985 820.164 919.642 938.985
-7.20301 362.793 877.768 952.797 962.793
31.6183 398.478 964.107 991.618 998.478
69.4087 388.736 940.537 1029.41 988.736
106.883 384.814 931.046 1066.88 984.814
144.265 382.713 925.963 1104.26 982.713
180.896 379.91 919.181 1140.9 979.91
541.574 462.659 1119.39 1501.57 1062.66
576.34 453.893 1098.18 1536.34 1053.89
-1083.17 672.915 1617.4 -123.168 1272.91
-1048.33 693.746 1667.47 -88.3312 1293.75
-1013.46 717.459 1724.47 -53.4573 1317.46
-963.046 732.903 1761.59 -3.04565 1332.9
-834.593 686.645 1650.4 125.407 1286.64
-743.489 665.663 1599.97 216.511 1265.66
-181.858 345.992 831.618 778.142 945.992
-140.396 328.748 790.17 819.604 928.748
-106.857 325.273 781.819 853.143 925.273
-75.6836 329.111 791.042 884.316 929.11
-44.4693 338.391 813.348 915.531 938.391
-11.8553 360.738 867.061 948.145 960.738
26.4672 402.934 968.482 986.467 1002.93
64.349 391.807 941.738 1024.35 991.807
101.742 387.165 930.581 1061.74 987.165
139.271 385.434 926.419 1099.27 985.434
175.502 381.621 917.254 1135.5 981.621
540.109 469.767 1129.12 1500.11 1069.77
568.636 455.533 1094.91 1528.64 1055.53
-1081.43 670.775 1601.73 -121.432 1270.77
-1061.23 700.803 1673.44 -101.23 1300.8
-1012.91 715.128 1707.64 -52.9073 1315.13
-957.483 726.195 1734.07 2.51666 1326.2
-846.759 693.732 1656.55 113.241 1293.73
-752.626 670.384 1600.8 207.374 1270.38
-190.137 355.237 848.267 769.863 955.237
-145.195 332.002 792.783 814.805 932.002
-111.18 327.556 782.167 848.82 927.556
-79.9743 331.133 790.707 880.026 931.133
-48.8607 340.231 812.432 911.139 940.231
-16.4448 359.814 859.194 943.555 959.814
21.3212 408.426 975.276 981.321 1008.43
59.5525 396.726 947.336 1019.55 996.726
96.7243 389.991 931.254 1056.72 989.991
134.041 387.487 925.276 1094.04 987.487
171.032 385.355 920.183 1131.03 985.355
565.335 460.714 1100.13 1525.33 1060.71
-1098.06 680.026 1613.3 -138.058 1280.03
-1056.66 696.334 1651.98 -96.6564 1296.33
-1019.17 717.632 1702.51 -59.1697 1317.63
-959.88 725.581 1721.37 0.119751 1325.58
-855.48 697.986 1655.9 104.52 1297.99
-770.53 682.871 1620.04 189.47 1282.87
-693.771 672.848 1596.27 266.229 1272.85
-710.697 761.06 1805.54 249.303 1361.06
-149.766 334.7 794.043 810.234 934.7
-115.324 329.315 781.266 844.676 929.315
-83.8288 331.443 786.316 876.171 931.443
-53.0473 340.814 808.547 906.953 940.814
-20.9228 358.41 850.293 939.077 958.41
15.9974 411.296 975.758 975.997 1011.3
54.6879 401.624 952.813 1014.69 1001.62
91.8208 393.34 933.16 1051.82 993.34
129.026 390.148 925.587 1089.03 990.148
165.68 387.119 918.403 1125.68 987.119
202.969 386.421 916.745 1162.97 986.421
558.878 463.354 1099.26 1518.88 1063.35
-1123.19 694.526 1637.08 -163.195 1294.53
-1068.27 702.545 1655.98 -108.265 1302.54
-1026.47 720.874 1699.18 -66.467 1320.87
-966.751 728.373 1716.86 -6.75092 1328.37
-872.501 708.988 1671.17 87.4988 1308.99
-781.074 688.787 1623.55 178.926 1288.79
-699.837 674.646 1590.22 260.163 1274.65
-716.976 762.178 1796.54 243.024 1362.18
-154.872 338.542 797.984 805.128 938.542
-119.73 331.825 782.15 840.27 931.825
-88.1775 333.781 786.762 871.823 933.781
-57.2011 341.434 804.8 902.799 941.434
-25.3306 357.34 842.291 934.669 957.34
10.7708 418.144 985.615 970.771 1018.14
49.7612 406.533 958.245 1009.76 1006.53
86.725 395.916 933.22 1046.72 995.916
124.195 393.403 927.296 1084.19 993.403
160.901 390.214 919.779 1120.9 990.214
197.454 387.937 914.413 1157.45 987.937
555.982 468.984 1105.45 1515.98 1068.98
-1106.96 683.452 1600.66 -146.961 1283.45
-1073.55 704.597 1650.19 -113.549 1304.6
-1028.33 720.319 1687.01 -68.3329 1320.32
-961.839 722.328 1691.71 -1.83905 1322.33
-882.878 714.56 1673.52 77.1216 1314.56
-789.236 692.599 1622.08 170.764 1292.6
-705.54 676.127 1583.51 254.46 1276.13
-690.944 729.247 1707.92 269.056 1329.25
-159.436 341.155 798.994 800.564 941.155
-123.804 333.42 780.879 836.196 933.42
-92.2108 334.959 784.484 867.789 934.959
-61.2609 341.738 800.359 898.739 941.738
-29.5314 354.789 830.926 930.469 954.789
5.43984 425.318 996.106 965.44 1025.32
44.5709 409.597 959.287 1004.57 1009.6
81.7327 399.001 934.471 1041.73 999.001
118.785 394.806 924.646 1078.79 994.806
155.786 392.51 919.268 1115.79 992.51
192.107 389.73 912.759 1152.11 989.73
554.197 475.661 1114.01 1514.2 1075.66
-1130.26 696.799 1621.54 -170.264 1296.8
-1076.81 705.338 1641.41 -116.815 1305.34
-1028.67 718.722 1672.56 -68.6702 1318.72
-967.299 724.116 1685.11 -7.29889 1324.12
-897.588 723.618 1683.95 62.4116 1323.62
-799.843 698.551 1625.62 160.157 1298.55
-711.546 677.93 1577.63 248.454 1277.93
-685.525 718.451 1671.93 274.475 1318.45
-164.764 345.35 803.673 795.236 945.35
-127.715 334.616 778.695 832.285 934.616
-96.1409 335.851 781.569 863.859 935.851
-65.5232 343.332 798.978 894.477 943.332
-33.9287 355.538 827.383 926.071 955.538
39.5024 414.061 963.573 999.502 1014.06
77.0324 403.695 939.451 1037.03 1003.7
113.924 398.009 926.218 1073.92 998.009
150.668 394.782 918.709 1110.67 994.782
187.284 392.576 913.576 1147.28 992.576
561.93 490.78 1142.11 1521.93 1090.78
-1136.23 699.444 1617.41 -176.225 1299.44
-1087.69 711.068 1644.29 -127.69 1311.07
-1028.11 716.529 1656.92 -68.108 1316.53
-978.243 730.015 1688.1 -18.2426 1330.01
-912.187 732.552 1693.97 47.8127 1332.55
-803.663 698.591 1615.43 156.337 1298.59
-719.537 681.642 1576.24 240.463 1281.64
-689.429 717.572 1659.33 270.571 1317.57
-169.982 349.24 807.591 790.018 949.24
-132.211 337.354 780.103 827.789 937.354
-100.007 336.619 778.404 859.993 936.619
-69.4984 343.575 794.489 890.502 943.575
-38.1479 354.971 820.842 921.852 954.971
-5.28957 417.983 966.552 954.71 1017.98
34.3078 417.585 965.631 994.308 1017.58
72.0594 407.184 941.58 1032.06 1007.18
108.727 400.051 925.087 1068.73 1000.05
145.646 397.295 918.712 1105.65 997.295
181.785 393.978 911.042 1141.78 993.978
577.46 473.363 1094.61 1537.46 1073.36
-1162.61 714.651 1642.19 -202.614 1314.65
-1098.69 716.873 1647.3 -138.688 1316.87
-1038.09 721.699 1658.39 -78.087 1321.7
-984.38 732.329 1682.82 -24.3802 1332.33
-926.903 741.546 1703.99 33.0974 1341.55
-813.805 704.14 1618.04 146.195 1304.14
-729.317 687.046 1578.76 230.683 1287.05
-695.139 718.632 1651.34 264.861 1318.63
-177.132 356.961 820.259 782.868 956.961
-137.214 341.324 784.327 822.786 941.324
-104.439 339.32 779.722 855.561 939.32
-73.5262 344.269 791.094 886.474 944.269
-42.549 356.491 819.18 917.451 956.491
-9.75669 388.128 891.878 950.243 988.128
29.2375 423.246 972.575 989.238 1023.25
67.4215 412.878 948.751 1027.42 1012.88
103.86 403.319 926.784 1063.86 1003.32
140.684 399.977 919.106 1100.68 999.977
176.638 396.095 910.186 1136.64 996.095
572.505 477.213 1096.59 1532.5 1077.21
-1102.74 718.15 1639.93 -142.74 1318.15
-1054.78 731.518 1670.46 -94.7756 1331.52
-995.825 738.595 1686.62 -35.8253 1338.59
-927.934 739.601 1688.92 32.066 1339.6
-819.791 706.1 1612.42 140.209 1306.1
-741.742 694.916 1586.88 218.258 1294.92
-702.662 721.6 1647.81 257.338 1321.6
-183.374 362.679 828.197 776.626 962.679
-141.238 342.827 782.862 818.762 942.827
-108.284 340.141 776.73 851.716 940.141
-77.4297 344.557 786.813 882.57 944.557
-46.6533 355.877 812.664 913.347 955.877
-14.3235 382.319 873.045 945.677 982.319
24.0034 427.378 975.94 984.003 1027.38
62.4532 416.929 952.079 1022.45 1016.93
98.9619 406.544 928.364 1058.96 1006.54
135.821 402.97 920.203 1095.82 1002.97
171.401 397.977 908.801 1131.4 997.977
208.698 398.045 908.955 1168.7 998.045
567.6 481.135 1098.7 1527.6 1081.13
-1108.55 720.583 1635.28 -148.553 1320.58
-1058.06 732.039 1661.28 -98.0609 1332.04
-1004.71 742.96 1686.06 -44.7147 1342.96
-929.378 738.032 1674.88 30.6224 1338.03
-830.463 712.1 1616.03 129.537 1312.1
-753.779 702.387 1593.99 206.221 1302.39
-695.829 709.942 1611.13 264.171 1309.94
-193.677 376.159 853.651 766.323 976.159
-146.345 346.928 787.314 813.655 946.928
-112.371 341.779 775.628 847.629 941.779
-81.4941 345.702 784.531 878.506 945.702
-50.7731 355.835 807.528 909.227 955.835
-18.7928 378.591 859.169 941.207 978.591
57.4493 421.005 955.423 1017.45 1021
94.3635 411.16 933.08 1054.36 1011.16
130.693 405.183 919.517 1090.69 1005.18
167.024 401.885 912.031 1127.02 1001.88
203.538 400.152 908.1 1163.54 1000.15
567.032 488.826 1109.34 1527.03 1088.83
-1111.43 721.118 1626.41 -151.427 1321.12
-1052.76 726.653 1638.89 -92.7606 1326.65
-996.15 734.458 1656.49 -36.1504 1334.46
-932.214 737.609 1663.6 27.7857 1337.61
-837.283 714.798 1612.15 122.717 1314.8
-767.705 711.574 1604.88 192.295 1311.57
-688.951 698.444 1575.27 271.049 1298.44
-150.907 349.678 788.662 809.093 949.678
-116.408 343.298 774.272 843.592 943.298
-85.5081 346.732 782.017 874.492 946.732
-55.0347 357.05 805.289 904.965 957.05
-23.2086 376.38 848.885 936.791 976.38
52.2482 423.795 955.826 1012.25 1023.8
89.3665 414.192 934.168 1049.37 1014.19
125.749 407.966 920.124 1085.75 1007.97
161.836 403.874 910.896 1121.84 1003.87
198.203 401.884 906.408 1158.2 1001.88
562.568 493.262 1112.5 1522.57 1093.26
-1114.21 721.606 1617.54 -154.208 1321.61
-1057 727.881 1631.6 -96.9985 1327.88
-997.331 733.197 1643.52 -37.3315 1333.2
-937.242 738.95 1656.41 22.7582 1338.95
-848.398 721.16 1616.54 111.602 1321.16
-776.384 715.874 1604.69 183.616 1315.87
-693.025 698.179 1565.02 266.975 1298.18
-679.282 754.162 1690.51 280.718 1354.16
-155.86 353.287 791.919 804.14 953.287
-120.68 345.526 774.524 839.32 945.526
-89.7769 348.845 781.962 870.223 948.844
-59.2335 358.02 802.53 900.767 958.02
-27.6401 375.855 842.507 932.36 975.855
47.1687 427.731 958.792 1007.17 1027.73
84.6538 418.696 938.539 1044.65 1018.7
120.895 411.078 921.463 1080.9 1011.08
157.33 407.591 913.646 1117.33 1007.59
193.295 404.46 906.628 1153.29 1004.46
589.224 485.689 1088.71 1549.22 1085.69
-1119.58 723.783 1612.54 -159.579 1323.78
-1056.37 725.779 1616.98 -96.3674 1325.78
-1002.6 734.964 1637.44 -42.5983 1334.96
-940.048 738.568 1645.47 19.9524 1338.57
-871.452 737.612 1643.34 88.5482 1337.61
-781.426 716.838 1597.06 178.574 1316.84
-700.306 701.18 1562.18 259.694 1301.18
-680.277 749.695 1670.27 279.723 1349.7
-160.727 356.644 794.577 799.273 956.644
-124.888 347.573 774.367 835.112 947.573
-93.5969 349.284 778.18 866.403 949.284
-63.4258 359.11 800.07 896.574 959.11
-31.8684 373.73 832.642 928.132 973.73
42.0698 431.816 962.053 1002.07 1031.82
79.7642 422.539 941.386 1039.76 1022.54
115.536 412.451 918.91 1075.54 1012.45
151.892 408.896 910.989 1111.89 1008.9
187.964 406.129 904.825 1147.96 1006.13
586.219 491.133 1094.21 1546.22 1091.13
-1126.34 726.864 1609.6 -166.339 1326.86
-1065.06 730.095 1616.75 -105.056 1330.1
-1009.11 737.66 1633.5 -49.1149 1337.66
-942.091 737.622 1633.42 17.9091 1337.62
-884.619 745.63 1651.15 75.3814 1345.63
-788.805 719.969 1594.33 171.195 1319.97
-706.527 703.143 1557.07 253.473 1303.14
-679.27 743.169 1645.7 280.73 1343.17
-166.288 361.463 800.438 793.712 961.463
-129.065 349.536 774.027 830.935 949.536
-97.7831 351.167 777.638 862.217 951.167
-67.5642 360.042 797.291 892.436 960.042
-36.2114 373.849 827.866 923.789 973.849
37.0818 437.649 969.148 997.082 1037.65
75.0385 427.509 946.694 1035.04 1027.51
111.118 417.233 923.938 1071.12 1017.23
147.728 413.67 916.047 1107.73 1013.67
183.42 409.501 906.815 1143.42 1009.5
582.818 496.323 1099.08 1542.82 1096.32
-1131.39 728.847 1604.28 -171.386 1328.85
-1076.05 735.991 1620 -116.053 1335.99
-1016.39 740.921 1630.85 -56.3939 1340.92
-947.305 739.188 1627.04 12.6948 1339.19
-888.867 746.132 1642.32 71.1328 1346.13
-797.525 724.331 1594.34 162.475 1324.33
-714.06 706.429 1554.93 245.94 1306.43
-683.582 742.578 1634.5 276.418 1342.58
-171.23 364.858 803.094 788.77 964.858
-133.097 351.126 772.869 826.903 951.126
-101.439 351.231 773.1 858.561 951.231
-71.3874 359.525 791.356 888.613 959.525
-40.3203 372.262 819.392 919.68 972.262
33.416 462.912 1018.92 993.416 1062.91
69.8969 430.305 947.152 1029.9 1030.31
106.09 419.854 924.146 1066.09 1019.85
142.415 415.284 914.088 1102.41 1015.28
178.134 411.221 905.144 1138.13 1011.22
214.72 410.217 902.935 1174.72 1010.22
583.951 505.509 1112.68 1543.95 1105.51
-1080.06 737.112 1612.77 -120.063 1337.11
-1018.51 740.437 1620.04 -58.512 1340.44
-941.091 731.885 1601.33 18.9088 1331.89
-888.568 742.865 1625.35 71.4323 1342.86
-808.967 731.153 1599.73 151.033 1331.15
-723.14 711.249 1556.18 236.86 1311.25
-680.728 734.328 1606.67 279.272 1334.33
-177.091 370.125 809.817 782.909 970.125
-137.868 354.642 775.939 822.132 954.642
-105.738 353.587 773.631 854.262 953.587
-75.5614 360.961 789.764 884.439 960.961
-44.5773 372.642 815.323 915.423 972.642
64.9607 434.512 950.691 1024.96 1034.51
101.771 425.443 930.849 1061.77 1025.44
137.575 418.262 915.138 1097.58 1018.26
173.424 414.265 906.393 1133.42 1014.27
209.525 412.175 901.82 1169.53 1012.18
610.549 497.995 1089.59 1570.55 1097.99
-1069.81 728.534 1584.52 -109.811 1328.53
-1017.16 737.466 1603.95 -57.1627 1337.47
-944.126 731.829 1591.69 15.8743 1331.83
-894.575 744.911 1620.14 65.4246 1344.91
-815.948 733.939 1596.28 144.052 1333.94
-732.064 715.911 1557.07 227.936 1315.91
-681.878 730.542 1588.89 278.122 1330.54
-633.125 749.96 1631.12 326.875 1349.96
-182.875 375.122 815.869 777.125 975.122
-141.744 355.845 773.944 818.255 955.845
-109.406 353.887 769.685 850.594 953.887
-79.3361 360.652 784.398 880.664 960.652
24.0213 505.201 1098.78 984.021 1105.2
59.7187 436.783 949.979 1019.72 1036.78
96.718 428.145 931.192 1056.72 1028.15
132.281 419.837 913.123 1092.28 1019.84
168.273 416.257 905.336 1128.27 1016.26
203.881 413.194 898.675 1163.88 1013.19
606.082 502.208 1092.27 1566.08 1102.21
-1081.61 734.998 1589.13 -121.612 1335
-1022.45 739.331 1598.5 -62.4474 1339.33
-959.003 740.951 1602 0.996948 1340.95
-904.258 750.024 1621.62 55.7424 1350.02
-824.727 738.349 1596.38 135.273 1338.35
-748.171 727.552 1573.03 211.829 1327.55
-682.582 726.39 1570.52 277.418 1326.39
-639.036 750.887 1623.49 320.964 1350.89
-192.085 386.921 836.558 767.914 986.921
-146.527 359.313 776.866 813.473 959.312
-113.929 356.979 771.822 846.071 956.979
-83.5042 362.275 783.271 876.496 962.275
-52.8073 372.274 804.89 907.193 972.274
-21.5214 404.524 874.619 938.479 1004.52
54.9014 442.411 956.533 1014.9 1042.41
92.0852 432.843 935.847 1052.09 1032.84
127.78 423.964 916.648 1087.78 1023.96
163.709 419.722 907.476 1123.71 1019.72
199.089 415.903 899.22 1159.09 1015.9
601.118 506.042 1094.11 1561.12 1106.04
-1086.6 736.837 1583.75 -126.605 1336.84
-1031.92 744.227 1599.63 -71.9166 1344.23
-973.097 749.44 1610.84 -13.097 1349.44
-912.883 754.259 1621.2 47.1165 1354.26
-839.238 747.866 1607.45 120.762 1347.87
-761.473 736.399 1582.81 198.527 1336.4
-685.999 725.218 1558.78 274.001 1325.22
-647.095 754.372 1621.44 312.905 1354.37
-151.538 363.269 780.806 808.462 963.269
-117.799 358.026 769.536 842.201 958.026
-87.2539 362.206 778.521 872.746 962.206
-56.8562 372.174 799.947 903.144 972.174
-25.8196 399.44 858.551 934.18 999.44
49.9237 447.279 961.375 1009.92 1047.28
87.1434 436.274 937.723 1047.14 1036.27
122.762 426.446 916.597 1082.76 1026.45
158.389 421.246 905.422 1118.39 1021.25
193.576 417.073 896.452 1153.58 1017.07
605.14 517.588 1112.5 1565.14 1117.59
-1089.64 737.359 1575.61 -129.638 1337.36
-1038.55 747.079 1596.38 -78.5476 1347.08
-979.684 752.139 1607.2 -19.684 1352.14
-916.511 754.381 1611.99 43.489 1354.38
-842.354 747.229 1596.7 117.646 1347.23
-769.611 740.231 1581.75 190.389 1340.23
-688.544 723.202 1545.36 271.456 1323.2
-654.293 756.877 1617.32 305.707 1356.88
-157.056 368.333 787.066 802.944 968.333
-121.979 360.05 769.367 838.021 960.05
-91.467 364.163 778.156 868.533 964.163
-60.9853 372.868 796.757 899.015 972.868
-29.9596 394.497 842.974 930.04 994.497
44.8251 451.489 964.757 1004.83 1051.49
82.2987 440.344 940.943 1042.3 1040.34
118.28 430.876 920.71 1078.28 1030.88
153.449 423.748 905.479 1113.45 1023.75
189.193 420.676 898.914 1149.19 1020.68
607.284 527.778 1127.77 1567.28 1127.78
-1091.49 737.098 1565.91 -131.488 1337.1
-1042.63 748.108 1589.3 -82.6266 1348.11
-985.102 753.954 1601.72 -25.1015 1353.95
-918.092 752.858 1599.39 41.9079 1352.86
-853.132 753.403 1600.55 106.868 1353.4
-776.996 743.347 1579.18 183.004 1343.35
-697.754 728.221 1547.05 262.246 1328.22
-660.018 757.72 1609.72 299.982 1357.72
-161.89 371.704 789.657 798.11 971.704
-126.147 362.042 769.132 833.853 962.042
-94.9634 363.391 771.996 865.037 963.391
-64.8277 372.099 790.497 895.172 972.099
43.5763 500.346 1062.95 1003.58 1100.35
77.3636 444.116 943.491 1037.36 1044.12
113.522 434.449 922.954 1073.52 1034.45
148.622 426.578 906.234 1108.62 1026.58
183.987 422.464 897.493 1143.99 1022.46
220.705 422.309 897.164 1180.7 1022.31
621.746 509.857 1083.15 1581.75 1109.86
-1105.87 745.302 1574.2 -145.87 1345.3
-1048.65 750.545 1585.27 -88.6506 1350.54
-986.505 752.721 1589.87 -26.5048 1352.72
-927.255 757.572 1600.11 32.7454 1357.57
-864.188 759.805 1604.83 95.8118 1359.81
-786.639 748.624 1581.21 173.361 1348.62
-706.249 732.489 1547.13 253.751 1332.49
-667.76 760.915 1607.17 292.24 1360.91
-167.155 375.994 794.159 792.845 975.994
-130.673 365.043 771.03 829.327 965.043
-99.1513 365.381 771.743 860.849 965.381
-69.019 373.556 789.009 890.981 973.556
-38.3237 390.418 824.625 921.676 990.418
36.7929 490.293 1035.58 996.793 1090.29
72.4839 448.416 947.126 1032.48 1048.42
108.835 438.417 926.007 1068.84 1038.42
144.217 430.695 909.697 1104.22 1030.7
179.372 425.608 898.951 1139.37 1025.61
215.2 423.579 894.667 1175.2 1023.58
618.238 514.828 1087.4 1578.24 1114.83
-1118.57 752.358 1579.98 -158.569 1352.36
-1046.44 747.109 1568.95 -86.4351 1347.11
-986.626 750.548 1576.18 -26.6263 1350.55
-927.969 755.406 1586.38 32.0308 1355.41
-867.922 759.78 1595.57 92.0783 1359.78
-794.107 751.833 1578.88 165.893 1351.83
-714.399 736.4 1546.47 245.601 1336.4
-665.807 753.159 1581.66 294.193 1353.16
-611.669 766.585 1609.86 348.331 1366.59
-172.595 380.588 799.249 787.405 980.588
-134.481 366.042 768.702 825.519 966.042
-103.179 366.812 770.318 856.821 966.812
-72.8815 373.402 784.157 887.119 973.402
31.3223 496.145 1041.92 991.322 1096.15
67.3762 451.475 948.113 1027.38 1051.47
103.848 441.268 926.679 1063.85 1041.27
139.353 433.521 910.411 1099.35 1033.52
173.965 426.856 896.412 1133.96 1026.86
209.539 424.465 891.392 1169.54 1024.47
612.126 517.658 1087.1 1572.13 1117.66
-1056.86 752.714 1571.71 -96.8616 1352.71
-999.002 757.707 1582.13 -39.0024 1357.71
-938.875 761.554 1590.16 21.1251 1361.55
-877.841 765.184 1597.74 82.1594 1365.18
-801.06 754.568 1575.57 158.94 1354.57
-730.805 748.774 1563.48 229.195 1348.77
-675.38 758.523 1583.83 284.62 1358.52
-621.328 772.051 1612.08 338.672 1372.05
-177.738 384.445 802.74 782.262 984.445
-139.167 369.429 771.386 820.833 969.429
-107.353 368.789 770.049 852.647 968.789
-77.3117 376.243 785.614 882.688 976.243
-46.7536 390.034 814.411 913.246 990.034
62.6998 457.766 955.839 1022.7 1057.77
99.3622 446.407 932.12 1059.36 1046.41
134.813 437.427 913.368 1094.81 1037.43
169.782 431.128 900.216 1129.78 1031.13
204.901 427.391 892.414 1164.9 1027.39
422.984 650.097 1357.44 1382.98 1250.1
613.71 527.094 1100.6 1573.71 1127.09
-1060.57 753.542 1564.5 -100.573 1353.54
-1002.44 758.089 1573.94 -42.4371 1358.09
-946.094 764.709 1587.69 13.906 1364.71
-882.612 766.111 1590.6 77.3881 1366.11
-810.053 759.23 1576.31 149.947 1359.23
-740.296 754.009 1565.47 219.704 1354.01
-676.189 754.098 1565.66 283.811 1354.1
-628.337 774.236 1607.47 331.663 1374.24
-185.502 393.807 817.621 774.498 993.807
-143.168 370.978 770.223 816.832 970.978
-111.222 369.759 767.693 848.778 969.759
-80.951 375.351 779.303 879.049 975.351
-50.7666 388.896 807.426 909.233 988.896
57.5947 461.343 957.84 1017.59 1061.34
94.3179 449.2 932.629 1054.32 1049.2
129.844 440.006 913.539 1089.84 1040.01
164.759 433.323 899.665 1124.76 1033.32
199.796 429.346 891.407 1159.8 1029.35
642.027 521.339 1082.4 1602.03 1121.34
-1061.54 752.444 1553.41 -101.543 1352.44
-1007.67 759.85 1568.7 -47.6717 1359.85
-948.054 763.636 1576.51 11.9465 1363.64
-885.769 765.671 1580.72 74.2313 1365.67
-814.222 759.39 1567.75 145.778 1359.39
-750.131 759.582 1568.14 209.869 1359.58
-681.462 754.738 1558.14 278.538 1354.74
-634.906 775.918 1601.87 325.094 1375.92
-199.997 416.94 860.765 760.003 1016.94
-147.603 373.648 771.391 812.397 973.648
-115.468 372.016 768.02 844.532 972.016
-85.0979 376.978 778.266 874.902 976.978
-54.7342 387.938 800.892 905.266 987.938
53.8372 477.066 984.895 1013.84 1077.07
89.3732 452.528 934.237 1049.37 1052.53
125.402 444.46 917.581 1085.4 1044.46
160.394 437.291 902.78 1120.39 1037.29
195.706 433.517 894.988 1155.71 1033.52
634.897 523.298 1080.34 1594.9 1123.3
-1070.98 757.361 1554.79 -110.984 1357.36
-1005.33 755.927 1551.84 -45.3275 1355.93
-954.989 766.594 1573.74 5.01123 1366.59
-885.27 762.123 1564.56 74.7299 1362.12
-824.702 765.448 1571.39 135.298 1365.45
-762.848 768.04 1576.71 197.152 1368.04
-684.664 753.149 1546.14 275.336 1353.15
-646.864 784.176 1609.83 313.136 1384.18
-151.645 375.325 770.504 808.355 975.325
-119.39 373.251 766.246 840.61 973.251
-88.835 376.91 773.757 871.165 976.91
-58.6252 386.911 794.289 901.375 986.911
-28.5963 424.596 871.653 931.404 1024.6
84.5886 456.825 937.815 1044.59 1056.82
120.443 447.18 918.016 1080.44 1047.18
155.316 439.354 901.949 1115.32 1039.35
190.124 434.388 891.754 1150.12 1034.39
225.791 432.671 888.231 1185.79 1032.67
626.134 523.861 1075.43 1586.13 1123.86
-1089.88 768.945 1569.76 -129.879 1368.95
-1010.61 757.766 1546.94 -50.6076 1357.77
-966.724 773.401 1578.85 -6.724 1373.4
-891.496 764.404 1560.49 68.5043 1364.4
-830.144 766.834 1565.45 129.856 1366.83
-770.382 771.263 1574.49 189.618 1371.26
-692.754 756.98 1545.33 267.246 1356.98
-655.379 788.234 1609.13 304.621 1388.23
-155.788 377.264 770.163 804.212 977.264
-123.634 375.513 766.588 836.366 975.513
-93.2433 379.751 775.24 866.757 979.751
-62.682 387.318 790.689 897.318 987.318
47.3854 530.806 1083.61 1007.39 1130.81
79.7611 461.119 941.349 1039.76 1061.12
115.979 451.85 922.427 1075.98 1051.85
150.942 443.454 905.287 1110.94 1043.45
185.716 437.928 894.006 1145.72 1037.93
221.58 436.369 890.823 1181.58 1036.37
623.569 529.616 1081.18 1583.57 1129.62
-1095.07 770.846 1564.91 -135.065 1370.85
-1021.28 763.655 1550.31 -61.2849 1363.66
-969.473 773.027 1569.33 -9.47339 1373.03
-906.097 773.854 1571.01 53.9032 1373.85
-839.397 771.752 1566.75 120.603 1371.75
-777.383 773.968 1571.24 182.617 1373.97
-700.368 760.298 1543.49 259.632 1360.3
-656.512 783.485 1590.57 303.488 1383.49
-593.739 786.722 1597.14 366.261 1386.72
-160.544 380.662 772.787 799.456 980.662
-127.457 376.522 764.382 832.543 976.522
-97.0594 380.216 771.883 862.941 980.216
-66.6906 387.654 786.983 893.309 987.654
-36.4851 410.875 834.123 923.515 1010.88
74.7842 464.745 943.485 1034.78 1064.74
110.976 454.537 922.762 1070.98 1054.54
146.29 446.837 907.13 1106.29 1046.84
180.269 439.008 891.237 1140.27 1039.01
215.992 437.35 887.87 1175.99 1037.35
633.178 545.953 1108.35 1593.18 1145.95
-1117.75 785.045 1584.94 -157.747 1385.05
-1029.8 767.924 1550.37 -69.8021 1367.92
-970.311 771.164 1556.91 -10.3113 1371.16
-918.273 781.2 1577.17 41.7269 1381.2
-848.445 776.476 1567.64 111.555 1376.48
-784.514 776.818 1568.33 175.486 1376.82
-711.966 767.926 1550.37 248.034 1367.93
-660.825 782.643 1580.09 299.175 1382.64
-600.767 788.85 1592.62 359.233 1388.85
-166.067 385.791 778.878 793.933 985.791
-132.002 379.665 766.509 827.998 979.665
-101.227 382.13 771.487 858.773 982.13
-70.7485 388.463 784.273 889.252 988.463
-40.5453 408.124 823.966 919.455 1008.12
70.1876 471.091 951.092 1030.19 1071.09
106.059 457.609 923.871 1066.06 1057.61
141.724 450.568 909.656 1101.72 1050.57
175.956 442.851 894.078 1135.96 1042.85
210.948 439.381 887.071 1170.95 1039.38
-1039.48 773.057 1552.17 -79.4819 1373.06
-973.696 771.359 1548.76 -13.6963 1371.36
-932.936 790.631 1587.45 27.0638 1390.63
-859.857 783.35 1572.84 100.143 1383.35
-793.14 781.156 1568.43 166.86 1381.16
-728.156 780.431 1566.97 231.844 1380.43
-665.486 782.286 1570.7 294.514 1382.29
-610.344 794.337 1594.89 349.656 1394.34
-170.534 388.395 779.831 789.466 988.395
-136.275 381.991 766.973 823.725 981.991
-104.827 381.987 766.966 855.173 981.987
-74.6492 388.593 780.23 885.351 988.593
-44.6228 406.486 816.155 915.377 1006.49
65.6292 478.364 960.474 1025.63 1078.36
101.091 460.51 924.627 1061.09 1060.51
136.445 452.04 907.62 1096.45 1052.04
171.463 446.323 896.14 1131.46 1046.32
205.733 441.022 885.498 1165.73 1041.02
645.84 534.898 1073.99 1605.84 1134.9
-1055.76 783.08 1563.71 -95.7596 1383.08
-981.589 775.139 1547.85 -21.5892 1375.14
-935.461 789.775 1577.08 24.5386 1389.78
-864.887 784.413 1566.37 95.1132 1384.41
-803.788 787.475 1572.49 156.212 1387.47
-739.762 787.952 1573.44 220.238 1387.95
-671.878 784.019 1565.59 288.122 1384.02
-618.969 798.574 1594.65 341.031 1398.57
-178.531 398.87 796.492 781.469 998.87
-140.76 384.887 768.569 819.24 984.887
-109.178 384.641 768.078 850.822 984.641
-78.9294 390.8 780.377 881.071 990.8
-48.9715 407.775 814.275 911.029 1007.78
96.4761 465.159 928.864 1056.48 1065.16
131.885 455.911 910.395 1091.89 1055.91
166.761 449.304 897.202 1126.76 1049.3
201.468 444.714 888.036 1161.47 1044.71
413.197 669.928 1337.76 1373.2 1269.93
565.383 724.36 1446.45 1525.38 1324.36
640.743 538.484 1075.28 1600.74 1138.48
-1067.83 789.963 1568.89 -107.835 1389.96
-988.547 778.185 1545.5 -28.5466 1378.19
-935.546 786.905 1562.82 24.4544 1386.91
-865.19 781.237 1551.56 94.8098 1381.24
-811.906 791.306 1571.56 148.094 1391.31
-750.634 794.656 1578.21 209.366 1394.66
-679.45 787.155 1563.31 280.55 1387.16
-627.594 802.815 1594.42 332.406 1402.81
-184.935 405.542 805.419 775.065 1005.54
-144.675 386.223 767.05 815.325 986.223
-112.78 384.704 764.035 847.22 984.704
-82.536 389.817 774.19 877.464 989.817
-26.6702 545.742 1083.86 933.33 1145.74
91.4033 467.725 928.916 1051.4 1067.72
126.931 458.479 910.554 1086.93 1058.48
162.31 453.024 899.72 1122.31 1053.02
196.091 445.953 885.677 1156.09 1045.95
231.599 444.407 882.607 1191.6 1044.41
636.721 543.006 1078.43 1596.72 1143.01
-1073.76 792.295 1565.03 -113.761 1392.3
-994.798 780.685 1542.09 -34.7982 1380.69
-937.568 785.711 1552.02 22.4324 1385.71
-885.234 795.872 1572.09 74.7659 1395.87
-818.045 793.224 1566.86 141.955 1393.22
-760.714 800.498 1581.23 199.286 1400.5
-686.954 790.23 1560.95 273.046 1390.23
-637.419 808.579 1597.19 322.581 1408.58
-191.935 413.334 816.462 768.065 1013.33
-149.407 389.724 769.825 810.593 989.724
-117.119 387.327 765.091 842.881 987.327
-86.7053 391.648 773.627 873.295 991.648
-56.868 405.057 800.113 903.132 1005.06
87.2249 475.166 938.599 1047.22 1075.17
122.472 462.931 914.431 1082.47 1062.93
157.98 457.187 903.085 1117.98 1057.19
192.251 450.724 890.319 1152.25 1050.72
226.341 445.967 880.922 1186.34 1045.97
654.313 566.282 1118.58 1614.31 1166.28
-1085.34 798.802 1569.41 -125.345 1398.8
-1015.82 794.753 1561.45 -55.8221 1394.75
-944.576 788.721 1549.6 15.4237 1388.72
-884.379 791.71 1555.47 75.6207 1391.71
-824.647 795.612 1563.14 135.353 1395.61
-767.933 803.33 1578.3 192.067 1403.33
-691.98 790.489 1553.07 268.02 1390.49
-645.133 811.665 1594.68 314.867 1411.66
-581.639 814.311 1599.88 378.361 1414.31
-153.101 390.515 767.244 806.899 990.515
-121.008 388.479 763.244 838.992 988.479
-90.7809 393.097 772.318 869.219 993.097
-60.9032 404.991 795.685 899.097 1004.99
82.8449 482.103 947.188 1042.84 1082.1
117.688 466.284 916.108 1077.69 1066.28
152.477 457.954 899.743 1112.48 1057.95
187.074 452.408 888.846 1147.07 1052.41
221.131 447.577 879.355 1181.13 1047.58
666.01 584.985 1149.32 1626.01 1184.99
-1090.74 800.757 1564.84 -130.744 1400.76
-1036.07 808.158 1579.31 -76.0709 1408.16
-957.755 796.873 1557.25 2.2453 1396.87
-886.852 790.586 1544.97 73.1475 1390.59
-831.536 798.295 1560.03 128.464 1398.29
-776.313 807.386 1577.8 183.687 1407.39
-701.189 795.55 1554.67 258.811 1395.55
-656.679 819.554 1601.58 303.321 1419.55
-588.659 816.291 1595.2 371.341 1416.29
-158.356 395.26 772.419 801.644 995.26
-125.321 391.002 764.099 834.679 991.002
-94.7909 394.326 770.594 865.209 994.326
-64.7209 403.845 789.195 895.279 1003.84
-36.2475 452.321 883.929 923.753 1052.32
78.9248 492.543 962.531 1038.92 1092.54
113.12 470.618 919.684 1073.12 1070.62
147.762 461.052 900.99 1107.76 1061.05
182.871 456.476 892.047 1142.87 1056.48
217.226 451.858 883.023 1177.23 1051.86
445.899 618.346 1208.37 1405.9 1218.35
466.034 581.639 1136.64 1426.03 1181.64
654.37 544.461 1063.99 1614.37 1144.46
-1097.77 803.917 1562.67 -137.773 1403.92
-1031.8 802.44 1559.8 -71.8022 1402.44
-964.738 799.861 1554.79 -4.73767 1399.86
-899.871 798.868 1552.86 60.1295 1398.87
-838.855 801.404 1557.79 121.145 1401.4
-785.704 812.49 1579.34 174.296 1412.49
-717.752 808.887 1572.33 242.248 1408.89
-663.463 821.49 1596.83 296.537 1421.49
-596.226 819.067 1592.12 363.774 1419.07
-162.319 396.736 771.185 797.681 996.736
-129.075 391.807 761.604 830.925 991.807
-98.4666 394.282 766.414 861.533 994.282
-68.3493 401.968 781.353 891.651 1001.97
-39.0804 432.605 840.907 920.92 1032.6
76.6694 515.385 1001.82 1036.67 1115.39
108.081 473.084 919.592 1068.08 1073.08
143.244 464.837 903.56 1103.24 1064.84
177.868 458.587 891.412 1137.87 1058.59
211.379 452.089 878.781 1171.38 1052.09
649.713 548.348 1065.89 1609.71 1148.35
-1109.77 810.712 1567.55 -149.771 1410.71
-1074.75 833.393 1611.4 -114.747 1433.39
-976.421 806.741 1559.87 -16.421 1406.74
-903.574 798.882 1544.68 56.4255 1398.88
-843.686 802.158 1551.01 116.314 1402.16
-790.458 812.817 1571.62 169.542 1412.82
-730.99 818.382 1582.38 229.01 1418.38
-670.319 823.553 1592.38 289.681 1423.55
-601.759 819.102 1583.77 358.241 1419.1
-167.453 401.044 775.438 792.547 1001.04
-133.753 395.408 764.54 826.247 995.407
-102.664 396.407 766.473 857.336 996.407
-72.4618 403.218 779.642 887.538 1003.22
103.467 477.504 923.278 1063.47 1077.5
138.885 469.266 907.348 1098.88 1069.27
173.415 462.144 893.577 1133.41 1062.14
207.519 456.57 882.8 1167.52 1056.57
647.371 554.245 1071.66 1607.37 1154.25
-1078.97 834.248 1604.58 -118.967 1434.25
-992.186 816.965 1571.34 -32.1864 1416.96
-910.357 801.641 1541.86 49.6431 1401.64
-855.101 809.176 1556.35 104.899 1409.18
-797.199 815.22 1567.98 162.801 1415.22
-741.947 825.272 1587.31 218.053 1425.27
-675.953 824.161 1585.18 284.047 1424.16
-610.15 823.07 1583.08 349.85 1423.07
-171.034 401.616 772.462 788.966 1001.62
-137.37 395.877 761.423 822.63 995.877
-106.622 397.637 764.807 853.378 997.636
-76.2125 402.647 774.444 883.787 1002.65
-46.6185 422.203 812.058 913.382 1022.2
98.858 482.166 927.39 1058.86 1082.17
133.886 471.612 907.091 1093.89 1071.61
168.307 463.974 892.399 1128.31 1063.97
202.906 459.464 883.725 1162.91 1059.46
-1077.14 830.461 1588.94 -117.138 1430.46
-999.969 820.597 1570.07 -39.9692 1420.6
-916.993 804.283 1538.85 43.0069 1404.28
-867.809 817.386 1563.92 92.1909 1417.39
-811.266 825.095 1578.67 148.734 1425.1
-766.05 846.66 1619.93 193.95 1446.66
-685.997 830.162 1588.37 274.003 1430.16
-624.68 835.253 1598.11 335.32 1435.25
-176.536 406.674 778.1 783.464 1006.67
-141.929 399.073 763.557 818.071 999.073
-110.612 399.037 763.487 849.388 999.037
-80.4455 404.76 774.437 879.554 1004.76
-50.8669 422.835 809.021 909.133 1022.84
94.1914 486.786 931.378 1054.19 1086.79
129.281 475.393 909.581 1089.28 1075.39
164.22 468.672 896.721 1124.22 1068.67
198.333 462.483 884.88 1158.33 1062.48
232.969 459.239 878.674 1192.97 1059.24
673.034 593.041 1134.68 1633.03 1193.04
-1068.48 821.473 1563.57 -108.485 1421.47
-1018.03 832.638 1584.82 -58.0274 1432.64
-928.896 811.539 1544.66 31.1036 1411.54
-876.216 821.526 1563.67 83.7841 1421.53
-816.878 826.356 1572.86 143.122 1426.36
-778.867 855.438 1628.22 181.133 1455.44
-695.112 835.022 1589.35 264.888 1435.02
-633.588 839.849 1598.54 326.412 1439.85
-569.824 842.48 1603.55 390.176 1442.48
-180.517 408.186 776.929 779.483 1008.19
-146.449 402.109 765.362 813.551 1002.11
-114.349 399.597 760.581 845.651 999.597
-84.264 404.882 770.639 875.736 1004.88
-54.859 421.735 802.718 905.141 1021.74
90.046 494.529 941.271 1050.05 1094.53
123.849 476.113 906.219 1083.85 1076.11
158.793 469.57 893.766 1118.79 1069.57
193.666 465.311 885.658 1153.67 1065.31
227.483 460.262 876.048 1187.48 1060.26
674.743 603.216 1148.14 1634.74 1203.22
-1085.72 832.406 1576.18 -125.718 1432.41
-1019.94 831.463 1574.39 -59.9356 1431.46
-940.193 818.243 1549.36 19.8066 1418.24
-880.718 822.024 1556.52 79.282 1422.02
-832.13 837.351 1585.54 127.87 1437.35
-775.043 845.999 1601.91 184.957 1446
-698.497 833.041 1577.38 261.503 1433.04
-642.938 845.023 1600.07 317.062 1445.02
-575.261 841.99 1594.32 384.739 1441.99
-186.606 414.4 784.673 773.394 1014.4
-150.947 405.044 766.957 809.053 1005.04
-118.417 401.371 760.003 841.583 1001.37
-88.3229 406.279 769.297 871.677 1006.28
-59.1583 423.293 801.512 900.842 1023.29
119.445 480.806 910.415 1079.45 1080.81
154.426 473.605 896.78 1114.43 1073.61
189.599 469.651 889.293 1149.6 1069.65
223.324 463.964 878.523 1183.32 1063.96
669.441 607.239 1149.82 1629.44 1207.24
666.359 564.677 1069.23 1626.36 1164.68
-1075.26 822.132 1548.71 -115.262 1422.13
-1029.92 836.888 1576.5 -69.9224 1436.89
-968.767 839.908 1582.19 -8.76678 1439.91
-888.757 825.842 1555.69 71.2428 1425.84
-838.481 839.366 1581.17 121.519 1439.37
-788.881 855.89 1612.3 171.119 1455.89
-714.039 845.545 1592.81 245.961 1445.55
-663.443 864.72 1628.93 296.557 1464.72
-584.121 846.556 1594.71 375.879 1446.56
-194.583 424.588 799.826 765.417 1024.59
-154.804 406.259 765.298 805.196 1006.26
-122.251 402.392 758.013 837.749 1002.39
-92.4136 407.875 768.341 867.586 1007.87
-63.2545 423.571 797.91 896.745 1023.57
115.042 485.717 914.978 1075.04 1085.72
149.658 476.485 897.586 1109.66 1076.48
184.259 470.859 886.99 1144.26 1070.86
217.649 464.504 875.019 1177.65 1064.5
665.387 571.787 1077.11 1625.39 1171.79
-1091.96 832.642 1560.47 -131.96 1432.64
-1036.5 839.546 1573.41 -76.5021 1439.55
-975.197 842.315 1578.6 -15.1967 1442.32
-897.832 830.621 1556.68 62.1685 1430.62
-846.452 843.017 1579.91 113.548 1443.02
-792.484 854.677 1601.76 167.516 1454.68
-722.75 849.903 1592.82 237.25 1449.9
-669.806 865.887 1622.77 290.194 1465.89
-594.222 852.9 1598.43 365.778 1452.9
-160.197 411.455 771.116 799.803 1011.46
-127.042 406.536 761.896 832.958 1006.54
-96.524 409.593 767.626 863.476 1009.59
-67.3063 423.798 794.248 892.694 1023.8
73.3502 493.776 925.394 1033.35 1093.78
110.783 491.514 921.156 1070.78 1091.51
145.74 482.211 903.72 1105.74 1082.21
179.88 474.524 889.313 1139.88 1074.52
213.743 468.821 878.626 1173.74 1068.82
-1071.65 814.974 1519.57 -111.65 1414.97
-1040.86 840.418 1567.02 -80.8578 1440.42
-986.106 848.592 1582.26 -26.1064 1448.59
-911.962 840.053 1566.33 48.0381 1440.05
-861.057 853.249 1590.94 98.9434 1453.25
-793.5 850.756 1586.29 166.5 1450.76
-726.91 848.945 1582.91 233.09 1448.95
-670.739 860.142 1603.79 289.261 1460.14
-601.387 855.032 1594.26 358.613 1455.03
-164.769 414.462 772.791 795.231 1014.46
-131.044 408.108 760.944 828.956 1008.11
-100.306 409.998 764.469 859.694 1010
-70.9185 421.63 786.158 889.082 1021.63
105.812 494.335 921.72 1065.81 1094.33
139.363 479.736 894.499 1099.36 1079.74
175.07 477.097 889.579 1135.07 1077.1
208.091 469.308 875.056 1168.09 1069.31
244.894 471.086 878.372 1204.89 1071.09
-1044.17 840.476 1559.18 -84.1743 1440.48
-989.502 848.412 1573.9 -29.502 1448.41
-915.505 839.73 1557.79 44.4955 1439.73
-859.341 847.331 1571.89 100.659 1447.33
-791.236 843.434 1564.66 168.764 1443.43
-728.589 845.182 1567.91 231.411 1445.18
-673.946 857.451 1590.67 286.054 1457.45
-607.543 855.784 1587.57 352.457 1455.78
-169.136 416.925 773.442 790.864 1016.92
-135.511 411.12 762.673 824.489 1011.12
-104.518 412.215 764.705 855.482 1012.22
-74.2989 418.611 776.569 885.701 1018.61
-46.565 459.098 851.678 913.435 1059.1
103.412 509.867 945.86 1063.41 1109.87
135.283 485.087 899.889 1095.28 1085.09
170.127 479.302 889.158 1130.13 1079.3
205.101 475.862 882.776 1165.1 1075.86
239.655 472.626 876.773 1199.65 1072.63
687.869 616.608 1143.88 1647.87 1216.61
-1055.11 846.675 1562.75 -95.1128 1446.68
-996.301 851.172 1571.05 -36.3007 1451.17
-948.05 865.936 1598.3 11.9496 1465.94
-867.987 851.679 1571.99 92.0129 1451.68
-788.301 835.534 1542.19 171.699 1435.53
-728.276 839.23 1549.01 231.724 1439.23
-674.544 851.576 1571.8 285.456 1451.58
-615.282 858.812 1585.15 344.718 1458.81
-557.124 869.479 1604.84 402.876 1469.48
-174.516 421.821 778.576 785.484 1021.82
-139.306 412.097 760.629 820.694 1012.1
-108.13 412.14 760.709 851.87 1012.14
-77.7489 416.473 768.705 882.251 1016.47
-49.0364 441.746 815.354 910.964 1041.75
130.228 487.04 898.955 1090.23 1087.04
165.582 482.655 890.862 1125.58 1082.66
199.796 477.132 880.667 1159.8 1077.13
234.763 474.823 876.405 1194.76 1074.82
-1044.09 835.295 1534.01 -84.0918 1435.29
-998.509 850.034 1561.08 -38.5089 1450.03
-960.118 873.335 1603.87 -0.118469 1473.33
-882.706 861.957 1582.97 77.2941 1461.96
-802.942 846.294 1554.21 157.058 1446.29
-740.597 847.874 1557.11 219.403 1447.87
-672.659 842.745 1547.69 287.341 1442.74
-623.284 862.226 1583.47 336.716 1462.23
-562.185 868.134 1594.32 397.815 1468.13
-179.718 426.192 782.695 780.282 1026.19
-143.438 414.1 760.489 816.562 1014.1
-112.067 413.399 759.202 847.933 1013.4
-81.8205 417.906 767.478 878.179 1017.91
-52.8403 438.551 805.392 907.16 1038.55
126.066 492.437 904.354 1086.07 1092.44
160.981 485.903 892.354 1120.98 1085.9
194.951 479.464 880.529 1154.95 1079.46
229.055 475.316 872.911 1189.06 1075.32
679.421 585.916 1076.03 1639.42 1185.92
-1043.21 832.098 1520.5 -83.2134 1432.1
-1004.29 851.963 1556.8 -44.2867 1451.96
-944.416 855.551 1563.36 15.5838 1455.55
-868.108 843.686 1541.68 91.8922 1443.69
-808.312 847.266 1548.22 151.688 1447.27
-740.097 841.879 1538.38 219.903 1441.88
-675.466 839.945 1534.84 284.534 1439.94
-625.963 858.358 1568.49 334.037 1458.36
-569.71 870.672 1590.99 390.29 1470.67
-184.129 428.638 783.256 775.871 1028.64
-147.314 415.387 759.041 812.686 1015.39
-116.133 415.173 758.65 843.867 1015.17
-85.6921 418.421 764.586 874.308 1018.42
-56.5684 435.556 795.898 903.432 1035.56
121.015 494.47 903.551 1081.01 1094.47
155.982 487.964 891.663 1115.98 1087.96
190.546 482.908 882.424 1150.55 1082.91
225.005 479.239 875.72 1185 1079.24
-1049.2 834.401 1517.13 -89.1956 1434.4
-1019.3 861.716 1566.8 -59.3013 1461.72
-942.788 850.644 1546.67 17.2119 1450.64
-867.636 839.291 1526.02 92.3643 1439.29
-800.329 834.352 1517.04 159.671 1434.35
-742.1 838.841 1525.21 217.9 1438.84
-687.827 849.041 1543.75 272.173 1449.04
-629.706 856.076 1556.54 330.294 1456.08
-581.17 879.199 1598.59 378.83 1479.2
-188.326 430.585 782.903 771.674 1030.58
-152.461 420.211 764.041 807.539 1020.21
-120.016 416.33 756.985 839.984 1016.33
-90.0518 421.352 766.116 869.948 1021.35
-60.7146 436.26 793.221 899.285 1036.26
117.87 504.625 917.525 1077.87 1104.62
151.175 490.621 892.063 1111.18 1090.62
186.628 487.687 886.728 1146.63 1087.69
220.701 482.691 877.643 1180.7 1082.69
-1037.71 822.866 1488.76 -77.7122 1422.87
-1016.27 856.23 1549.12 -56.2714 1456.23
-951.766 855.342 1547.52 8.23358 1455.34
-911.424 877.591 1587.77 48.5764 1477.59
-792.29 821.562 1486.4 167.71 1421.56
-735.429 826.15 1494.7 224.571 1426.15
-689.611 845.104 1529 270.389 1445.1
-639.726 862.368 1560.23 320.274 1462.37
-587.001 879.213 1590.71 372.999 1479.21
-193.438 434.596 786.288 766.562 1034.6
-156.802 422.74 764.838 803.198 1022.74
-123.836 417.327 755.045 836.164 1017.33
-94.3429 423.909 766.952 865.657 1023.91
-64.5163 434.824 786.701 895.484 1034.82
-0.00558121 535.951 969.663 959.994 1135.95
145.956 491.907 889.977 1105.96 1091.91
182.085 490.931 888.212 1142.08 1090.93
216.191 485.738 878.816 1176.19 1085.74
251.374 484.101 875.855 1211.37 1084.1
-1054.17 833.512 1500.6 -94.1696 1433.51
-1022.33 858.437 1545.47 -62.3257 1458.44
-962.674 861.763 1551.46 -2.67444 1461.76
-900.644 863.279 1554.19 59.3561 1463.28
-800.125 825.325 1485.86 159.875 1425.33
-745.042 831.846 1497.6 214.958 1431.85
-692.341 842.435 1516.67 267.659 1442.44
-640.567 856.354 1541.73 319.433 1456.35
-595.935 883.914 1591.34 364.065 1483.91
-200.494 442.836 797.253 759.506 1042.84
-161.551 426.329 767.535 798.449 1026.33
-128.324 420.572 757.171 831.676 1020.57
-98.0333 423.833 763.041 861.967 1023.83
-51.2678 612.745 1103.15 908.732 1212.75
-5.79838 588.516 1059.53 954.202 1188.52
141.559 495.98 892.931 1101.56 1095.98
177.344 493.678 888.787 1137.34 1093.68
210.448 485.972 874.913 1170.45 1085.97
244.998 483.362 870.215 1205 1083.36
-1051.74 829.229 1485.58 -91.7378 1429.23
-960.703 856.683 1534.76 -0.703491 1456.68
-882.175 841.796 1508.09 77.8248 1441.8
-816.619 837.977 1501.25 143.381 1437.98
-756.365 839.419 1503.84 203.635 1439.42
-689.641 833.299 1492.87 270.359 1433.3
-645.667 856.154 1533.82 314.333 1456.15
-607.803 892.918 1599.68 352.197 1492.92
-167.054 431.806 773.589 792.946 1031.81
-132.596 423.064 757.928 827.404 1023.06
-101.472 422.866 757.573 858.528 1022.87
-72.9532 438.136 784.929 887.047 1038.14
136.467 497.654 891.556 1096.47 1097.65
171.727 493.929 884.884 1131.73 1093.93
207.02 491.581 880.676 1167.02 1091.58
240.774 486.82 872.147 1200.77 1086.82
-1007.64 840.542 1498.51 -47.6423 1440.54
-956.099 849.334 1514.18 3.90131 1449.33
-888.492 844.087 1504.83 71.508 1444.09
-811.892 828.876 1477.71 148.108 1428.88
-757.352 835.549 1489.61 202.648 1435.55
-695.573 834.706 1488.1 264.427 1434.71
-647.165 851.287 1517.67 312.835 1451.29
-617.6 898.821 1602.41 342.4 1498.82
-171.413 434.25 774.176 788.587 1034.25
-136.537 424.505 756.803 823.463 1024.51
-105.566 424.743 757.226 854.434 1024.74
-77.0806 439.348 783.265 882.919 1039.35
131.768 500.755 892.741 1091.77 1100.76
167.098 496.965 885.985 1127.1 1096.97
202.535 494.794 882.113 1162.54 1094.79
235.299 487.737 869.532 1195.3 1087.74
687.117 643.847 1147.84 1647.12 1243.85
-1025.57 852.733 1512.87 -65.5703 1452.73
-969.429 857.945 1522.12 -9.42926 1457.94
-909.453 860.245 1526.2 50.5474 1460.25
-814.009 826.859 1466.97 145.991 1426.86
-760.269 833.887 1479.44 199.731 1433.89
-694.86 828.226 1469.39 265.14 1428.23
-651.299 850.003 1508.03 308.701 1450
-619.357 893.103 1584.49 340.643 1493.1
-176.238 437.839 776.789 783.762 1037.84
-141.16 428.048 759.419 818.84 1028.05
-109.664 426.652 756.942 850.336 1026.65
-80.6379 437.557 776.289 879.362 1037.56
127.413 505.28 896.439 1087.41 1105.28
161.944 498.434 884.294 1121.94 1098.43
197.626 496.985 881.723 1157.63 1096.98
230.51 490.039 869.399 1190.51 1090.04
-1030.37 853.988 1507.79 -70.3658 1453.99
-967.114 852.727 1505.56 -7.11377 1452.73
-906.192 853.488 1506.9 53.8082 1453.49
-817.442 826.233 1458.78 142.558 1426.23
-762.854 831.93 1468.84 197.146 1431.93
-710.528 841.283 1485.35 249.472 1441.28
-653.847 846.749 1495 306.153 1446.75
-616.867 881.497 1556.36 343.133 1481.5
-182.15 444.02 783.954 777.85 1044.02
-145.469 430.589 760.24 814.531 1030.59
-113.633 428.086 755.821 846.367 1028.09
-83.8971 434.579 767.284 876.103 1034.58
-56.283 466.45 823.555 903.717 1066.45
124.123 514.403 908.221 1084.12 1114.4
157.467 501.988 886.301 1117.47 1101.99
191.856 496.936 877.382 1151.86 1096.94
226.601 494.257 872.651 1186.6 1094.26
-1005.47 830.728 1459.67 -45.4678 1430.73
-943.61 828.963 1456.57 16.39 1428.96
-884.055 829.119 1456.85 75.945 1429.12
-827.65 832.467 1462.73 132.35 1432.47
-758.66 822.69 1445.55 201.34 1422.69
-702.309 826.123 1451.58 257.691 1426.12
-653.864 840.353 1476.59 306.136 1440.35
-610.065 864.068 1518.25 349.935 1464.07
-189.346 453.129 796.193 770.654 1053.13
-149.167 431.344 757.915 810.833 1031.34
-117.531 429.297 754.319 842.469 1029.3
-88.0022 436.232 766.504 871.998 1036.23
-59.2407 456.791 802.627 900.759 1056.79
152.927 505.421 888.076 1112.93 1105.42
187.486 500.473 879.381 1147.49 1100.47
