ply
format ascii 1.0
element vertex 1195
property float x
property float y
property float z
property float u
property float v
end_header
77.1037 177.376 1175.42 1037.1 777.376
130.226 184.353 1221.66 1090.23 784.353
-172.305 182.723 1189.31 787.695 782.723
-120.244 177.846 1157.57 839.756 777.846
-72.3571 176.808 1150.81 887.643 776.808
-25.1122 176.388 1148.08 934.888 776.388
22.2802 178.953 1164.78 982.28 778.953
70.6548 180.53 1175.04 1030.65 780.53
122.725 186.442 1213.52 1082.72 786.442
-179.007 186.183 1190.65 780.993 786.183
-126.396 180.758 1155.95 833.604 780.758
-78.2609 179.067 1145.14 881.739 779.067
-31.3135 179.097 1145.33 928.687 779.097
15.8623 181.563 1161.1 975.862 781.563
64.0749 183.295 1172.18 1024.07 783.295
115.141 188.206 1203.59 1075.14 788.206
-186.282 190.219 1195.56 773.718 790.219
-132.901 184.174 1157.57 827.099 784.174
-84.7612 182.715 1148.4 875.239 782.715
-37.6938 182.804 1148.96 922.306 782.804
9.49831 184.418 1159.1 969.498 784.418
57.7756 186.852 1174.4 1017.78 786.852
108.017 190.537 1197.56 1068.02 790.537
-194.951 195.628 1208.79 765.049 795.628
-139.075 187.131 1156.29 820.925 787.131
-90.8227 185.411 1145.66 869.177 785.411
-43.866 185.484 1146.11 916.134 785.484
3.15298 187.072 1155.92 963.153 787.072
50.9541 188.577 1165.22 1010.95 788.577
100.537 192.029 1186.55 1060.54 792.029
161.884 208.371 1287.53 1121.88 808.371
-204.201 201.539 1224.63 755.799 801.539
-145.68 190.664 1158.55 814.32 790.664
-97.2683 188.897 1147.82 862.732 788.897
-50.1352 188.63 1146.19 909.865 788.63
-3.16756 190.308 1156.39 956.832 790.308
44.5419 191.58 1164.12 1004.54 791.58
93.8436 194.842 1183.94 1053.84 794.842
153.948 210.663 1280.07 1113.95 810.662
-217.687 211.484 1264.06 742.313 811.484
-151.772 193.522 1156.71 808.228 793.522
-103.347 191.671 1145.64 856.653 791.671
-56.2929 191.395 1143.99 903.707 791.395
-9.45385 192.745 1152.06 950.546 792.745
38.0423 194.072 1159.99 998.042 794.072
86.9353 197.091 1178.04 1046.94 797.091
143.516 209.157 1250.16 1103.52 809.157
-158.931 197.724 1162.82 801.069 797.724
-109.608 194.798 1145.61 850.393 794.798
-62.598 194.681 1144.92 897.402 794.681
-15.6472 194.591 1144.4 944.353 794.591
31.6889 197.168 1159.55 991.689 797.168
80.1012 199.33 1172.27 1040.1 799.33
134.321 208.904 1228.57 1094.32 808.904
-165.236 200.839 1162.46 794.764 800.839
-115.838 197.874 1145.29 844.162 797.874
-68.5141 196.825 1139.22 891.486 796.825
-21.9261 197.923 1145.58 938.074 797.923
25.2919 199.88 1156.9 985.292 799.88
73.685 202.514 1172.15 1033.69 802.514
126.351 210.176 1216.5 1086.35 810.176
-173.427 206.199 1174.89 786.573 806.199
-122.159 201.103 1145.86 837.841 801.103
-74.8286 200.17 1140.54 885.171 800.17
-28.1842 201.022 1145.39 931.816 801.022
18.9222 202.56 1154.16 978.922 802.56
67.3523 205.948 1173.46 1027.35 805.948
119.036 212.315 1209.74 1079.04 812.315
-181.927 211.829 1188.46 778.073 811.829
-128.315 204.063 1144.89 831.685 804.063
-80.9315 202.956 1138.68 879.068 802.956
-34.3709 203.708 1142.9 925.629 803.708
12.6106 205.682 1153.97 972.611 805.682
60.4933 207.632 1164.91 1020.49 807.632
111.41 213.681 1198.85 1071.41 813.681
-189.205 215.969 1193.39 770.795 815.969
-134.768 207.491 1146.54 825.232 807.491
-87.2264 206.234 1139.59 872.774 806.234
-40.6022 206.747 1142.43 919.398 806.747
6.29686 208.667 1153.04 966.297 808.667
54.0576 210.554 1163.46 1014.06 810.554
104.244 215.692 1191.85 1064.24 815.692
-195.946 219.474 1194.71 764.054 819.474
-140.991 210.558 1146.17 819.009 810.558
-93.2108 208.799 1136.6 866.789 808.799
-46.6161 208.832 1136.78 913.384 808.832
-0.0065876 210.253 1144.51 959.993 810.253
47.5289 212.981 1159.36 1007.53 812.981
97.1134 217.571 1184.35 1057.11 817.571
157.896 235.826 1283.72 1117.9 835.826
-207.761 228.552 1225.88 752.239 828.552
-147.453 213.976 1147.7 812.547 813.976
-99.2679 211.572 1134.81 860.732 811.572
-52.79 211.776 1135.9 907.21 811.776
-6.23811 212.517 1139.88 953.762 812.517
41.2189 216.297 1160.15 1001.22 816.297
90.2354 219.826 1179.08 1050.24 819.826
149.338 236.893 1270.62 1109.34 836.893
-153.179 216.338 1143.6 806.821 816.338
-105.491 214.713 1135.01 854.509 814.713
-58.807 214.178 1132.19 901.193 814.178
-12.4747 215.72 1140.34 947.525 815.72
34.7399 218.609 1155.61 994.74 818.609
83.3315 221.83 1172.63 1043.33 821.83
138.024 232.993 1231.65 1098.02 832.993
-159.404 219.427 1143.41 800.596 819.427
-111.673 217.77 1134.78 848.327 817.77
-65.0742 217.533 1133.54 894.926 817.533
-18.7083 218.831 1140.31 941.292 818.831
28.414 221.703 1155.27 988.414 821.703
76.8697 224.885 1171.85 1036.87 824.885
130.796 235.468 1227 1090.8 835.468
-166.495 223.681 1149.21 793.505 823.681
-117.743 220.622 1133.49 842.257 820.622
-70.9963 219.781 1129.17 889.004 819.781
-24.8735 221.337 1137.17 935.127 821.337
22.0053 223.914 1150.41 982.005 823.914
69.8072 225.965 1160.94 1029.81 825.965
123.4 237.497 1220.19 1083.4 837.497
-174.44 229.005 1160.27 785.56 829.005
-124.302 224.375 1136.81 835.698 824.375
-77.1767 222.889 1129.28 882.823 822.889
-31.0107 223.871 1134.26 928.989 823.871
15.7091 226.957 1149.89 975.709 826.957
63.4315 229.034 1160.41 1023.43 829.034
116.192 239.724 1214.58 1076.19 839.724
-183.215 235.299 1175.87 776.785 835.299
-129.973 226.534 1132.07 830.027 826.534
-83.2196 225.621 1127.51 876.78 825.621
-37.1053 226.323 1131.02 922.895 826.323
9.33305 227.907 1138.93 969.333 827.907
56.8144 231.094 1154.86 1016.81 831.094
108.018 239.642 1197.58 1068.02 839.642
166.606 254.109 1269.87 1126.61 854.109
-193.062 242.813 1197.07 766.938 842.813
-136.298 229.858 1133.2 823.702 829.858
-89.2025 228.24 1125.22 870.797 828.24
-43.3104 229.532 1131.59 916.69 829.532
3.10188 230.666 1137.19 963.102 830.666
50.2446 233.061 1148.99 1010.24 833.061
100.548 240.704 1186.67 1060.55 840.704
159.738 257.7 1270.46 1119.74 857.7
-199.552 246.018 1196.75 760.448 846.018
-142.111 232.331 1130.17 817.889 832.331
-95.192 230.923 1123.31 864.808 830.923
-49.2597 231.511 1126.18 910.74 831.511
-3.1025 232.839 1132.64 956.898 832.839
43.6433 234.483 1140.64 1003.64 834.483
244.529 176.833 860.197 1204.53 776.833
-210.865 255.06 1224.45 749.135 855.06
-148.683 236.046 1133.17 811.317 836.046
-101.626 234.669 1126.56 858.374 834.669
-55.3712 234.398 1125.26 904.629 834.398
60.9072 171.922 825.335 1020.91 771.922
162.516 172.016 825.785 1122.52 772.016
198.989 174.307 836.783 1158.99 774.307
231.744 173.145 831.206 1191.74 773.145
273.855 178.376 856.317 1233.86 778.376
-225.191 267.473 1267.41 734.809 867.473
-155.447 240.021 1137.33 804.553 840.021
-107.478 237.073 1123.36 852.522 837.073
-61.3074 236.643 1121.32 898.693 836.643
21.475 165.836 785.806 981.475 765.836
53.6195 165.606 784.714 1013.62 765.606
86.9842 167.903 795.601 1046.98 767.903
122.599 172.106 815.514 1082.6 772.106
153.617 169.438 802.871 1113.62 769.438
189.706 172.317 816.517 1149.71 772.317
228.196 176.187 834.851 1188.2 776.187
268.013 179.938 852.626 1228.01 779.938
-162.29 244.07 1141.73 797.71 844.07
-113.968 240.88 1126.8 846.032 840.88
-67.3864 239.526 1120.47 892.614 839.526
16.5389 161.724 756.522 976.539 761.724
48.06 163.433 764.518 1008.06 763.433
81.4111 167.559 783.819 1041.41 767.559
115.741 170.794 798.951 1075.74 770.794
149.013 171.385 801.717 1109.01 771.385
184.075 173.449 811.37 1144.07 773.449
222.355 177.45 830.085 1182.36 777.45
260.42 180.239 843.131 1220.42 780.239
-168.977 247.844 1144.74 791.023 847.844
-119.891 243.479 1124.58 840.109 843.479
-73.3289 241.985 1117.68 886.671 841.985
12.3549 163.156 753.583 972.355 763.156
43.4005 163.712 756.155 1003.4 763.712
76.1799 167.62 774.204 1036.18 767.62
110.667 171.882 793.888 1070.67 771.882
144.554 173.485 801.292 1104.55 773.485
178.752 174.8 807.364 1138.75 774.8
215.439 177.756 821.022 1175.44 777.756
256.705 183.182 846.08 1216.71 783.182
-175.88 251.897 1148.96 784.12 851.897
-126.017 246.51 1124.38 833.983 846.51
-79.4329 245.021 1117.59 880.567 845.021
8.20005 164.512 750.373 968.2 764.512
39.3793 166.255 758.323 999.379 766.255
71.847 169.499 773.123 1031.85 769.499
106.305 174.015 793.719 1066.3 774.015
138.811 173.968 793.508 1098.81 773.968
176.066 178.761 815.365 1136.07 778.76
212.867 181.636 828.481 1172.87 781.636
251.229 184.869 843.226 1211.23 784.869
-185.891 260.26 1172.48 774.109 860.26
-131.61 248.537 1119.67 828.39 848.537
-85.5709 248.158 1117.96 874.429 848.158
4.09706 166.53 750.226 964.097 766.53
35.3082 168.684 759.929 995.308 768.684
66.88 169.733 764.657 1026.88 769.733
101.755 175.82 792.08 1061.75 775.82
135.047 176.889 796.892 1095.05 776.889
172.785 182.23 820.955 1132.79 782.23
207.694 183.332 825.921 1167.69 783.332
246.85 187.349 844.015 1206.85 787.349
-196.785 269.609 1199.83 763.215 869.609
-137.562 251.29 1118.3 822.438 851.29
-91.7328 251.351 1118.57 868.267 851.351
-0.00431951 168.633 750.46 959.996 768.633
30.9771 169.793 755.619 990.977 769.793
63.1768 173.131 770.475 1023.18 773.131
96.635 176.543 785.659 1056.64 776.543
132.415 181.43 807.409 1092.42 781.43
169.234 185.501 825.523 1129.23 785.501
203.373 185.767 826.711 1163.37 785.767
239.149 187.238 833.257 1199.15 787.238
-204.429 274.343 1206.22 755.571 874.343
-143.706 254.399 1118.53 816.294 854.399
-97.5935 253.747 1115.67 862.407 853.747
-4.08924 169.948 747.219 955.911 769.948
27.0143 172.934 760.349 987.014 772.934
58.7901 174.718 768.194 1018.79 774.718
91.9823 177.998 782.616 1051.98 777.998
128.604 184.502 811.211 1088.6 784.502
162.707 185.462 815.432 1122.71 785.462
199.902 189.018 831.066 1159.9 789.018
237.928 192.21 845.102 1197.93 792.21
-220.771 290.466 1261.94 739.229 890.466
-150.105 257.946 1120.66 809.895 857.946
-103.967 257.475 1118.61 856.034 857.475
-8.22019 172.958 751.424 951.78 772.958
22.8943 175.294 761.571 982.894 775.294
54.9827 178.088 773.712 1014.98 778.088
88.2163 181.19 787.19 1048.22 781.19
124.399 187.065 812.715 1084.4 787.065
158.577 188.08 817.122 1118.58 788.08
192.497 188.488 818.895 1152.5 788.488
232.111 193.522 840.765 1192.11 793.522
271.789 197.301 857.184 1231.79 797.301
-156.114 260.812 1119.81 803.886 860.812
-109.81 259.889 1115.85 850.19 859.889
18.6807 176.899 759.527 978.681 776.899
50.5772 179.579 771.033 1010.58 779.579
84.9359 185.577 796.787 1044.94 785.577
119.309 188.265 808.327 1079.31 788.265
154.198 190.422 817.589 1114.2 790.422
188.906 191.625 822.754 1148.91 791.625
225.545 194.125 833.486 1185.54 794.125
268.917 201 863.006 1228.92 801
-162.416 264.166 1121.06 797.584 864.166
-115.994 263.13 1116.66 844.006 863.13
-70.1793 263.016 1116.18 889.821 863.016
14.5092 178.739 758.524 974.509 778.739
46.1464 180.842 767.448 1006.15 780.842
80.7721 188.203 798.687 1040.77 788.203
116.68 193.443 820.925 1076.68 793.443
149.836 192.795 818.177 1109.84 792.795
184.684 194.164 823.984 1144.68 794.164
220.695 196.142 832.379 1180.69 796.142
259.881 200.035 848.9 1219.88 800.035
-169.656 268.993 1128.45 790.344 868.993
-121.709 265.333 1113.1 838.291 865.333
-76.1712 265.684 1114.57 883.829 865.684
10.3624 180.811 758.519 970.362 780.811
42.0193 183.238 768.7 1002.02 783.238
75.401 187.882 788.183 1035.4 787.882
111.136 193.844 813.194 1071.14 793.844
146.128 196.058 822.482 1106.13 796.058
182.206 198.625 833.25 1142.21 798.625
217.979 200.101 839.444 1177.98 800.102
258.253 204.744 858.92 1218.25 804.744
-176.423 273.003 1132.29 783.577 873.003
-127.526 267.813 1110.76 832.474 867.813
-82.3188 268.908 1115.3 877.681 868.908
6.21986 183.007 759.026 966.22 783.007
37.7601 185.061 767.545 997.76 785.061
70.8042 189.267 784.991 1030.8 789.267
106.399 195.532 810.975 1066.4 795.532
142.826 199.979 829.418 1102.83 799.979
176.916 200.072 829.806 1136.92 800.072
214.537 203.485 843.96 1174.54 803.485
254.287 207.688 861.392 1214.29 807.688
-184.512 278.969 1144.06 775.488 878.969
-133.514 270.678 1110.06 826.486 870.678
-88.2006 271.294 1112.59 871.799 871.294
2.04602 182.904 750.097 962.046 782.904
33.5018 186.811 766.12 993.502 786.811
66.4889 191.344 784.71 1026.49 791.344
101.263 196.386 805.387 1061.26 796.386
140.156 204.972 840.599 1100.16 804.972
173.584 203.754 835.605 1133.58 803.754
208.097 204.001 836.616 1168.1 804.001
249.566 210.032 861.35 1209.57 810.032
-193.32 285.872 1159.37 766.68 885.872
-139.219 272.999 1107.17 820.781 872.999
-94.3834 274.627 1113.77 865.617 874.627
-2.07568 186.847 757.771 957.924 786.847
29.5008 190.113 771.016 989.501 790.113
62.0246 192.946 782.509 1022.02 792.946
97.9283 200.778 814.27 1057.93 800.778
133.646 204.342 828.724 1093.65 804.342
170.17 207.445 841.309 1130.17 807.445
203.637 206.403 837.082 1163.64 806.403
242.907 210.696 854.492 1202.91 810.696
-209.765 303.673 1218.07 750.235 903.673
-145.387 276.244 1108.05 814.613 876.244
-100.389 277.441 1112.85 859.611 877.441
-6.15133 186.883 749.609 953.849 786.883
25.4038 193.117 774.614 985.404 793.117
57.7386 195.058 782.399 1017.74 795.058
93.4466 202.938 814.007 1053.45 802.938
128.888 206.244 827.266 1088.89 806.244
167.89 212.683 853.094 1127.89 812.683
201.571 211.323 847.639 1161.57 811.323
237.52 212.391 851.924 1197.52 812.391
-151.833 279.989 1110.89 808.167 879.99
-106.635 280.912 1114.55 853.365 880.912
-10.3514 190.814 757.076 949.649 790.814
21.0598 194.227 770.617 981.06 794.227
53.4619 197.199 782.407 1013.46 797.199
89.1344 205.481 815.267 1049.13 805.481
125.727 210.789 836.327 1085.73 810.789
161.306 212.485 843.059 1121.31 812.485
195.843 212.453 842.93 1155.84 812.453
233.166 214.999 853.034 1193.17 814.999
-158.801 284.63 1117.18 801.199 884.63
-112.174 282.561 1109.06 847.826 882.561
-14.3273 190.714 748.561 945.673 790.714
16.7891 195.659 767.969 976.789 795.659
49.1214 199.081 781.403 1009.12 799.081
84.378 206.975 812.384 1044.38 806.975
120.533 211.981 832.033 1080.53 811.981
157.901 216.44 849.537 1117.9 816.44
194.559 218.49 857.583 1154.56 818.49
230.087 218.838 858.95 1190.09 818.838
-166.173 289.89 1125.75 793.827 889.89
-117.731 284.371 1104.32 842.269 884.371
12.6702 199.007 772.819 972.67 799.007
44.9145 201.508 782.532 1004.91 801.508
79.8291 208.914 811.29 1039.83 808.914
117.484 217.024 842.785 1077.48 817.024
153.374 218.93 850.186 1113.37 818.93
190.959 222.1 862.499 1150.96 822.1
223.937 219.758 853.405 1183.94 819.758
260.475 221.072 858.504 1220.47 821.072
-174.239 296.215 1138.23 785.761 896.215
-123.793 287.447 1104.54 836.207 887.447
-78.7713 288.421 1108.28 881.229 888.421
8.41758 200.458 770.278 968.418 800.458
40.9873 205.405 789.288 1000.99 805.405
75.4987 211.425 812.418 1035.5 811.425
113.345 220.238 846.283 1073.34 820.238
151.316 225.106 864.989 1111.32 825.106
186.121 224.31 861.93 1146.12 824.31
220.01 222.839 856.279 1180.01 822.839
254.478 222.28 854.13 1214.48 822.28
-178.447 295.986 1125.53 781.553 895.986
-129.564 289.867 1102.26 830.436 889.867
-84.7646 291.226 1107.43 875.235 891.226
4.17109 200.855 763.78 964.171 800.855
36.7554 208.033 791.075 996.755 808.033
70.518 212.024 806.251 1030.52 812.024
107.974 221.028 840.492 1067.97 821.028
145.196 225.311 856.778 1105.2 825.311
180.056 224.976 855.503 1140.06 824.976
214.34 224.146 852.349 1174.34 824.146
249.469 224.309 852.968 1209.47 824.309
-185.078 299.838 1128.45 774.922 899.838
-136.017 293.803 1105.73 823.983 893.803
-90.77 294.095 1106.83 869.23 894.095
-0.0044018 203.202 764.757 959.996 803.202
32.2215 208.839 785.972 992.221 808.839
66.6788 216.07 813.184 1026.68 816.07
103.712 224.044 843.197 1063.71 824.044
141.769 229.69 864.445 1101.77 829.69
177.188 229.658 864.326 1137.19 829.658
210.193 227.03 854.432 1170.19 827.03
245.368 227.161 854.926 1205.37 827.161
-141.958 296.609 1104.93 818.042 896.609
-96.3691 295.734 1101.67 863.631 895.734
-4.16685 204.391 761.4 955.833 804.391
27.8601 210.5 784.154 987.86 810.5
61.808 216.801 807.627 1021.81 816.801
97.5904 222.896 830.332 1057.59 822.896
136.515 231.159 861.115 1096.52 831.159
172.33 231.842 863.661 1132.33 831.842
208.04 232.175 864.901 1168.04 832.175
244.631 233.251 868.909 1204.63 833.251
-147.773 299.172 1103.24 812.227 899.172
-102.608 299.377 1104 857.392 899.377
-8.33586 206.635 761.998 951.664 806.635
23.6439 213.28 786.504 983.644 813.28
57.2116 218.317 805.078 1017.21 818.317
93.4786 226.2 834.147 1053.48 826.2
131.108 232.273 856.543 1091.11 832.273
168.37 235.267 867.584 1128.37 835.267
205.15 236.661 872.722 1165.15 836.661
239.99 235.734 869.304 1199.99 835.734
-152.946 300.502 1097.09 807.054 900.502
-108.336 301.537 1100.87 851.664 901.537
-12.4828 208.403 760.85 947.517 808.403
19.1794 213.595 779.806 979.179 813.595
52.733 220.195 803.899 1012.73 820.195
88.7479 228.042 832.547 1048.75 828.042
126.961 235.609 860.174 1086.96 835.609
161.967 235.227 858.779 1121.97 835.227
200.455 239.136 873.051 1160.45 839.136
233.688 236.542 863.58 1193.69 836.542
-159.442 304.452 1100.53 800.558 904.452
-114.636 305.297 1103.58 845.364 905.297
-16.7327 211.627 764.986 943.267 811.627
14.8927 215.385 778.572 974.893 815.385
48.9288 225.109 813.721 1008.93 825.109
85.0648 232.693 841.133 1045.06 832.693
121.42 236.328 854.273 1081.42 836.328
160.619 242.63 877.054 1120.62 842.63
195.75 241.606 873.353 1155.75 841.606
231.526 241.572 873.231 1191.53 841.572
-165.647 307.811 1101.78 794.353 907.811
-120.588 308.107 1102.84 839.412 908.107
-21.5627 220.339 788.684 938.437 820.339
10.6404 217.596 778.868 970.64 817.596
44.209 225.947 808.758 1004.21 825.947
79.805 233.06 834.219 1039.81 833.06
118.359 241.952 866.046 1078.36 841.952
155.9 245.147 877.482 1115.9 845.147
190.293 243.122 870.233 1150.29 843.122
224.321 241.344 863.87 1184.32 841.344
-174.5 315.946 1119.94 785.5 915.946
-126.494 310.818 1101.77 833.506 910.818
-81.3335 310.871 1101.95 878.667 910.871
6.31364 217.356 770.469 966.314 817.356
39.6318 227.264 805.591 999.632 827.264
75.7807 237.018 840.164 1035.78 837.018
112.59 242.096 858.165 1072.59 842.096
151.941 248.918 882.348 1111.94 848.918
186.676 247.009 875.581 1146.68 847.009
220.699 244.927 868.2 1180.7 844.927
257.271 245.858 871.5 1217.27 845.858
-182.514 322.348 1131.67 777.486 922.348
-132.076 312.786 1098.1 827.924 912.786
-87.0503 312.779 1098.08 872.95 912.779
2.11088 220.433 773.876 962.111 820.433
34.724 226.185 794.07 994.724 826.185
70.2674 236.221 829.303 1030.27 836.221
107.598 243.76 855.773 1067.6 843.76
144.968 247.658 869.456 1104.97 847.658
182.554 250.315 878.783 1142.55 850.315
217.645 249.237 875 1177.64 849.237
251.768 247.514 868.951 1211.77 847.514
-187.344 323.101 1123.53 772.656 923.101
-137.802 315.153 1095.9 822.198 915.153
-92.9051 315.277 1096.33 867.095 915.277
-2.11461 222.004 771.984 957.885 822.004
30.548 229.596 798.385 990.548 829.596
65.9841 239.396 832.462 1025.98 839.396
103.329 247.077 859.172 1063.33 847.077
142.198 253.572 881.759 1102.2 853.572
178.458 253.723 882.283 1138.46 853.723
213.937 252.901 879.425 1173.94 852.901
247.471 250.348 870.547 1207.47 850.348
-199.783 336.788 1160.1 760.217 936.788
-143.367 317.205 1092.65 816.633 917.205
-99.1076 318.946 1098.64 860.892 918.946
-6.42568 227.324 783.042 953.574 827.324
26.2776 232.613 801.259 986.278 832.613
60.991 239.932 826.471 1020.99 839.932
98.0975 248.075 854.52 1058.1 848.075
136.389 254.139 875.41 1096.39 854.139
174.218 256.996 885.248 1134.22 856.996
209.272 255.479 880.024 1169.27 855.479
243.314 253.354 872.705 1203.31 853.354
-149.216 319.926 1091.74 810.784 919.926
-105.274 322.44 1100.32 854.726 922.44
-10.5806 226.767 773.835 949.419 826.767
21.9138 234.98 801.865 981.914 834.98
56.9056 244.047 832.806 1016.91 844.047
93.1266 249.608 851.782 1053.13 849.608
133.261 259.765 886.441 1093.26 859.765
170.786 261.571 892.604 1130.79 861.571
205.951 259.764 886.438 1165.95 859.764
240.435 257.768 879.628 1200.44 857.768
-154.207 320.875 1084.86 805.793 920.875
-110.737 323.834 1094.86 849.263 923.834
-14.8299 229.174 774.823 945.17 829.174
17.3128 234.233 791.926 977.313 834.233
52.7583 248.232 839.256 1012.76 848.232
87.0758 247.966 838.359 1047.08 847.966
127.719 260.767 881.638 1087.72 860.767
164.816 262.276 886.74 1124.82 862.276
201.099 262.179 886.412 1161.1 862.179
238.562 263.414 890.587 1198.56 863.414
-159.996 323.555 1083.9 800.004 923.555
-116.306 325.661 1090.96 843.694 925.661
-19.029 230.845 773.328 940.971 830.845
12.9193 235.229 788.012 972.919 835.229
47.5516 247.308 828.478 1007.55 847.308
82.4469 250.119 837.894 1042.45 850.119
121.157 259.445 869.135 1081.16 859.445
159.647 264.169 884.959 1119.65 864.169
196.887 265.456 889.271 1156.89 865.456
234.82 267.13 894.881 1194.82 867.13
-167.328 329.286 1093.09 792.672 929.286
-121.922 327.705 1087.84 838.078 927.705
-23.5848 236.246 784.239 936.415 836.246
8.54746 235.621 782.164 968.547 835.621
42.5581 246.88 819.538 1002.56 846.88
78.2717 253.724 842.257 1038.27 853.724
109.806 246.976 819.859 1069.81 846.976
155.4 267.604 888.334 1115.4 867.604
193.545 270.008 896.312 1153.55 870.008
229.881 269.521 894.697 1189.88 869.521
-176.88 339.13 1115.65 783.12 939.13
-127.817 330.545 1087.4 832.183 930.545
4.28894 238.731 785.36 964.289 838.731
37.7319 246.857 812.093 997.732 846.857
74.5166 258.978 851.968 1034.52 858.978
103.119 244 802.694 1063.12 844
148.185 265.803 874.419 1108.19 865.803
190.469 275.092 904.978 1150.47 875.092
225.38 272.438 896.249 1185.38 872.438
-185.064 346.078 1128.36 774.936 946.078
-133.072 331.796 1081.79 826.928 931.796
-89.4824 334.661 1091.13 870.518 934.661
-0.00451744 240.72 784.847 959.995 840.72
33.0416 247.201 805.977 993.042 847.201
70.1558 262.417 855.588 1030.16 862.417
98.8318 246.447 803.519 1058.83 846.447
133.797 250.225 815.837 1093.8 850.225
184.84 276.545 901.652 1144.84 876.545
221.301 275.911 899.584 1181.3 875.911
-193.718 353.702 1143.03 766.282 953.702
-138.667 333.986 1079.31 821.333 933.986
-95.23 336.874 1088.65 864.77 936.874
-4.37127 247.169 798.754 955.629 847.169
28.9762 252.371 815.567 988.976 852.371
65.187 263.578 851.78 1025.19 863.578
95.7579 252.116 814.74 1055.76 852.116
128.25 250.333 808.979 1088.25 850.333
174.673 270.886 875.399 1134.67 870.886
217.294 279.542 903.373 1177.29 879.542
251.925 276.895 894.817 1211.92 876.895
-207.645 370.526 1186.91 752.355 970.526
-144.23 336.149 1076.79 815.77 936.149
-100.683 338.176 1083.28 859.317 938.176
-8.63873 246.521 789.684 951.361 846.521
24.2802 252.135 807.669 984.28 852.135
59.913 263.193 843.091 1019.91 863.193
94.386 262.929 842.244 1054.39 862.929
124.046 252.991 810.409 1084.05 852.991
159.581 256.701 822.295 1119.58 856.701
211.418 280.767 899.386 1171.42 880.767
248.071 280.515 898.578 1208.07 880.515
-149.787 338.348 1074.43 810.213 938.348
-106.624 341.198 1083.48 853.376 941.198
-12.9526 248.617 789.486 947.047 848.617
19.8913 254.684 808.75 979.891 854.684
55.4748 266.318 845.696 1015.47 866.318
91.7504 271.047 860.714 1051.75 871.047
120.727 257.576 817.934 1080.73 857.576
157.751 263.399 836.427 1117.75 863.399
208.246 285.619 906.985 1168.25 885.619
242.35 282.03 895.591 1202.35 882.03
-155.241 340.365 1071.53 804.759 940.365
-112.309 343.43 1081.18 847.691 943.43
-17.281 250.956 790.054 942.719 850.956
15.4296 256.223 806.637 975.43 856.223
50.5536 267.056 840.743 1010.55 867.056
87.1939 273.868 862.186 1047.19 873.868
114.227 255.278 803.664 1074.23 855.278
152.18 263.954 830.977 1112.18 863.954
202.132 286.461 901.831 1162.13 886.461
238.581 285.828 899.839 1198.58 885.828
-162.615 346.526 1081.62 797.385 946.526
-119.404 349.856 1092.01 840.596 949.856
-21.6691 253.923 792.576 938.331 853.923
11.0086 258.164 805.814 971.009 858.164
45.5594 267.022 833.462 1005.56 867.022
82.0741 274.863 857.938 1042.07 874.863
110.561 259.18 808.986 1070.56 859.18
148.043 266.957 833.258 1108.04 866.957
198.36 290.622 907.125 1158.36 890.622
236.333 291.584 910.127 1196.33 891.584
-174.131 361.099 1117.57 785.869 961.099
-126.841 356.969 1104.79 833.159 956.969
-25.9779 255.852 791.843 934.022 855.852
6.60588 260.47 806.132 966.606 860.47
40.9753 269.118 832.899 1000.98 869.118
77.3104 276.946 857.124 1037.31 876.946
105.984 261.012 807.811 1065.98 861.012
142.101 266.633 825.208 1102.1 866.633
193.157 292.732 905.982 1153.16 892.732
229.87 292.181 904.277 1189.87 892.181
-188.012 379.857 1165.76 771.988 979.857
-135.586 367.318 1127.28 824.414 967.318
-30.8018 262.231 804.775 929.198 862.231
2.17902 260.302 798.857 962.179 860.302
36.1512 269.377 826.707 996.151 869.377
72.6925 279.549 857.924 1032.69 879.549
101.863 263.986 810.162 1061.86 863.986
139.109 271.857 834.317 1099.11 871.857
179.154 281.013 862.416 1139.15 881.013
226.313 296.469 909.852 1186.31 896.469
-192.302 378.938 1153.27 767.698 978.938
-142.43 372.18 1132.7 817.57 972.18
-2.19168 262.902 800.122 957.808 862.902
31.5063 270.56 823.43 991.506 870.56
68.2803 283.047 861.431 1028.28 883.047
96.8688 264.656 805.46 1056.87 864.656
132.857 270.693 823.836 1092.86 870.693
169.834 275.889 839.647 1129.83 875.889
220.767 298.184 907.5 1180.77 898.184
-197.167 379.321 1144.91 762.833 979.321
-149.809 378.272 1141.74 810.191 978.272
-100.821 370.284 1117.64 859.179 970.284
-6.57106 265.3 800.758 953.429 865.3
26.8599 271.348 819.013 986.86 871.348
63.2831 284.109 857.53 1023.28 884.109
93.031 268.489 810.386 1053.03 868.489
128.51 273.278 824.839 1088.51 873.278
168.656 283.928 856.985 1128.66 883.928
216.037 300.985 908.469 1176.04 900.985
-1136.36 645.903 1933.59 -176.357 1245.9
-1061.06 648.335 1940.87 -101.057 1248.34
-977.539 645.733 1933.08 -17.5386 1245.73
-157.072 383.889 1149.22 802.928 983.889
-107.247 374.445 1120.95 852.753 974.445
-10.8438 264.926 793.089 949.156 864.926
22.0836 269.934 808.079 982.084 869.934
58.4091 285.543 854.808 1018.41 885.543
88.119 269.233 805.98 1048.12 869.233
123.186 273.722 819.418 1083.19 873.722
164.107 286.509 857.698 1124.11 886.509
212.574 305.631 914.943 1172.57 905.631
245.336 299.823 897.556 1205.34 899.823
-1140.45 647.51 1922.67 -180.449 1247.51
-1067.62 651.17 1933.53 -107.617 1251.17
-983.015 647.662 1923.12 -23.0151 1247.66
-164.762 390.366 1159.12 795.238 990.366
-113.455 377.772 1121.73 846.545 977.772
-15.2287 267.959 795.657 944.771 867.959
17.753 273.484 812.061 977.753 873.484
53.3011 285.55 847.891 1013.3 885.55
83.8741 271.959 807.533 1043.87 871.959
119.141 276.973 822.422 1079.14 876.973
160.52 290.85 863.626 1120.52 890.85
207.822 308.502 916.042 1167.82 908.502
244.929 307.934 914.355 1204.93 907.934
-1159.41 657.56 1936.79 -199.414 1257.56
-1075.66 654.917 1929 -115.661 1254.92
-990.089 650.658 1916.46 -30.0886 1250.66
-172.889 397.651 1171.25 787.111 997.651
-119.835 381.628 1124.05 840.165 981.628
-19.54 269.604 794.095 940.46 869.604
13.2954 275.326 810.95 973.295 875.326
48.5922 287.433 846.609 1008.59 887.433
78.4557 270.703 797.332 1038.46 870.703
114.595 279.099 822.063 1074.59 879.099
155.106 291.906 859.786 1115.11 891.906
202.281 310.189 913.635 1162.28 910.189
239.097 309.356 911.182 1199.1 909.356
-1184.66 671.156 1961.04 -224.655 1271.16
-1085.52 659.77 1927.78 -125.517 1259.77
-991.521 649.968 1899.13 -31.5212 1249.97
-181.55 405.9 1186 778.45 1005.9
-126.447 386.128 1128.22 833.553 986.128
-24.0904 274.155 801.05 935.91 874.155
8.84431 276.988 809.328 968.844 876.988
43.7246 288.17 842 1003.72 888.17
75.3307 277.427 810.61 1035.33 877.427
109.466 279.725 817.325 1069.47 879.725
148.037 289.623 846.248 1108.04 889.623
196.986 312.211 912.247 1156.99 912.211
234.925 312.925 914.331 1194.93 912.925
-1148.16 649.795 1883.59 -188.161 1249.8
-1091.92 662.53 1920.5 -131.919 1262.53
-1001.09 654.628 1897.59 -41.0911 1254.63
-191.031 415.664 1204.9 768.969 1015.66
-132.67 389.372 1128.69 827.33 989.372
-28.2347 274.064 794.439 931.765 874.064
4.38142 276.774 802.296 964.381 876.774
38.4959 285.826 828.536 998.496 885.826
76.7134 302.575 877.084 1036.71 902.575
105.484 283.265 821.111 1065.48 883.265
141.477 288 834.836 1101.48 888
187.671 307.61 891.68 1147.67 907.61
230.241 315.855 915.581 1190.24 915.855
-1120.43 633.444 1821.75 -160.429 1233.44
-1094.73 663.124 1907.11 -134.732 1263.12
-1010.63 659.271 1896.03 -50.6315 1259.27
-950.802 671.928 1932.43 9.198 1271.93
-197.007 417.663 1201.18 762.993 1017.66
-139.59 394.577 1134.78 820.41 994.577
-32.7603 277.783 798.891 927.24 877.783
-0.00464394 280.542 806.826 959.995 880.542
33.945 287.91 828.014 993.945 887.91
71.1709 301.802 867.967 1031.17 901.802
99.9635 282.592 812.721 1059.96 882.592
136.979 290.422 835.239 1096.98 890.422
182.886 310.2 892.121 1142.89 910.2
226.881 320.684 922.27 1186.88 920.684
-1137.11 642.218 1832.58 -177.106 1242.22
-1094.81 662.077 1889.25 -134.807 1262.08
-1016.5 661.53 1887.69 -56.5045 1261.53
-954.047 672.054 1917.72 5.95312 1272.05
-202.753 419.249 1196.33 757.247 1019.25
-146.265 398.963 1138.45 813.735 998.963
-4.39608 281.507 803.286 955.604 881.507
29.5357 291.33 831.316 989.536 891.33
66.4408 304.243 868.164 1026.44 904.243
95.983 286.193 816.656 1055.98 886.193
131.93 291.638 832.194 1091.93 891.638
181.565 318.885 909.944 1141.57 918.885
221.25 322.347 919.822 1181.25 922.347
-1146.47 646.857 1831.53 -186.47 1246.86
-1103.49 666.249 1886.44 -143.493 1266.25
-1020.8 662.78 1876.62 -60.8018 1262.78
-957.315 672.229 1903.37 2.68542 1272.23
-153.683 405.226 1147.37 806.317 1005.23
-103.995 395.176 1118.92 856.005 995.176
-8.84553 285.575 808.587 951.154 885.575
24.8386 291.812 826.245 984.839 891.812
61.937 307.82 871.572 1021.94 907.82
91.0443 286.93 812.425 1051.04 886.93
129.86 299.632 848.389 1089.86 899.632
172.79 314.455 890.359 1132.79 914.455
216.541 325.34 921.179 1176.54 925.34
-1147.18 646.62 1816.8 -187.179 1246.62
-1093.42 659.117 1851.91 -133.42 1259.12
-1026.61 665.023 1868.51 -66.6052 1265.02
-960.671 672.497 1889.51 -0.671265 1272.5
-160.452 409.629 1150.93 799.548 1009.63
-109.996 397.816 1117.74 850.004 997.816
-13.2686 287.842 808.745 946.731 887.842
20.4152 295.425 830.052 980.415 895.425
56.1284 304.539 855.66 1016.13 904.539
89.4138 298.536 838.794 1049.41 898.536
131.822 317.867 893.108 1091.82 917.867
171.225 323.122 907.871 1131.23 923.122
211.196 327.379 919.833 1171.2 927.379
-1154.9 650.34 1813.33 -194.899 1250.34
-1049.2 631.472 1760.72 -89.2003 1231.47
-1039.79 672.051 1873.86 -79.792 1272.05
-968.322 675.793 1884.3 -8.32239 1275.79
-168.482 417.078 1162.93 791.518 1017.08
-116.416 401.939 1120.72 843.584 1001.94
-17.5591 287.908 802.766 942.441 887.908
15.8404 296.999 828.114 975.84 896.999
51.7936 308.924 861.364 1011.79 908.924
89.3048 316.705 883.059 1049.3 916.705
128.635 324.587 905.038 1088.64 924.587
167.965 328.937 917.167 1127.96 928.937
205.38 328.634 916.321 1165.38 928.634
245.687 332.335 926.642 1205.69 932.335
-1158.99 652.02 1804.26 -198.987 1252.02
-1057.52 635.498 1758.54 -97.5167 1235.5
-1049.43 676.782 1872.78 -89.4293 1276.78
-971.856 676.234 1871.27 -11.856 1276.23
-176.286 423.733 1172.55 783.714 1023.73
-122.695 405.507 1122.11 837.305 1005.51
-22.0719 291.744 807.311 937.928 891.745
11.2482 297.544 823.358 971.248 897.544
46.2795 305.956 846.635 1006.28 905.956
84.3848 318.769 882.093 1044.38 918.769
123.354 326.179 902.597 1083.35 926.179
162.276 330.072 913.371 1122.28 930.072
199.972 330.479 914.496 1159.97 930.479
238.856 332.412 919.844 1198.86 932.412
-1294.14 684.073 1878.75 -334.137 1284.07
-1164.21 654.343 1797.09 -204.21 1254.34
-1073.97 644.408 1769.81 -113.969 1244.41
-1051.46 676.62 1858.28 -91.4607 1276.62
-979.399 679.485 1866.14 -19.3986 1279.49
-876.463 659.601 1811.54 83.5374 1259.6
-184.296 430.677 1182.81 775.704 1030.68
-129.3 410.067 1126.21 830.7 1010.07
-26.5729 294.923 809.978 933.427 894.923
6.76118 300.423 825.084 966.761 900.423
41.5844 307.776 845.279 1001.58 907.776
80.6648 325.63 894.313 1040.66 925.63
119.152 330.679 908.18 1079.15 930.679
157.708 333.468 915.839 1117.71 933.468
195.277 333.499 915.924 1155.28 933.499
234.831 336.363 923.79 1194.83 936.363
-1176.63 660.713 1801.07 -216.63 1260.71
-1083.74 649.302 1769.96 -123.739 1249.3
-1058.94 679.976 1853.58 -98.9366 1279.98
-985.71 681.895 1858.81 -25.7101 1281.89
-880.901 660.455 1800.37 79.0991 1260.46
-865.407 708.183 1930.47 94.5925 1308.18
-720.168 648.658 1768.21 239.832 1248.66
-197.683 449.652 1225.73 762.317 1049.65
-135.905 414.511 1129.93 824.095 1014.51
-30.9845 296.979 809.549 929.016 896.979
2.22491 299.228 815.68 962.225 899.228
36.7588 308.37 840.601 996.759 908.37
75.0253 324.826 885.457 1035.03 924.826
113.818 332.083 905.24 1073.82 932.083
152.547 335.632 914.913 1112.55 935.632
188.064 332.108 905.308 1148.06 932.108
229.782 338.89 923.796 1189.78 938.89
-1197.79 671.983 1818.24 -237.789 1271.98
-1093.01 653.897 1769.31 -133.009 1253.9
-1058.81 678.468 1835.79 -98.8088 1278.47
-989.871 682.836 1847.61 -29.8711 1282.84
-883.396 659.888 1785.52 76.604 1259.89
-867.51 706.577 1911.85 92.4897 1306.58
-718.954 643.749 1741.85 241.046 1243.75
-142.762 419.599 1135.34 817.238 1019.6
-35.1761 297.214 804.198 924.824 897.214
-2.23028 300.916 814.214 957.77 900.916
32.2954 311.944 844.054 992.295 911.944
68.612 319.913 865.616 1028.61 919.913
108.894 334.634 905.447 1068.89 934.634
148.488 340.293 920.759 1108.49 940.293
185.529 338.993 917.241 1145.53 938.993
224.016 340.329 920.856 1184.02 940.329
-1313.42 693.391 1862.39 -353.417 1293.39
-1211.46 679.046 1823.86 -251.464 1279.05
-1091.47 652.038 1751.32 -131.472 1252.04
-1024.57 655.171 1759.74 -64.566 1255.17
-996.18 685.278 1840.6 -36.1802 1285.28
-885.036 658.724 1769.28 74.9645 1258.72
-866.672 702.65 1887.26 93.3282 1302.65
-722.177 642.903 1726.79 237.823 1242.9
-149.139 423.186 1136.64 810.861 1023.19
-40.227 304.364 817.496 919.773 904.364
-6.66292 302.3 811.953 953.337 902.3
27.662 314.035 843.472 987.662 914.035
63.2379 319.041 856.918 1023.24 919.041
103.743 336.456 903.694 1063.74 936.456
142.29 340.027 913.285 1102.29 940.027
171.758 324.934 872.746 1131.76 924.934
212.144 332.14 892.1 1172.14 932.14
-1205.04 674.849 1799.38 -245.037 1274.85
-1087.61 648.811 1729.95 -127.613 1248.81
-1015.14 647.827 1727.33 -55.1407 1247.83
-992.157 680.646 1814.84 -32.1572 1280.65
-893.096 662.364 1766.09 66.9042 1262.36
-866.509 699.35 1864.71 93.4911 1299.35
-725.996 642.647 1713.52 234.004 1242.65
-155.324 426.211 1136.43 804.676 1026.21
-106.188 416.251 1109.87 853.812 1016.25
-11.03 302.55 806.703 948.97 902.55
22.7892 312.749 833.897 982.789 912.749
59.1489 324.653 865.636 1019.15 924.653
99.0016 339.61 905.518 1059 939.61
137.355 342.67 913.675 1097.36 942.67
165.488 324.382 864.914 1125.49 924.382
204.159 329.561 878.724 1164.16 929.561
-1203.31 673.296 1782.25 -243.31 1273.3
-1093.28 651.283 1723.98 -133.281 1251.28
-1020.43 649.904 1720.33 -60.4319 1249.9
-993.844 679.973 1799.92 -33.844 1279.97
-903.071 667.429 1766.72 56.9286 1267.43
-866.991 696.643 1844.05 93.0091 1296.64
-730.697 643.222 1702.64 229.303 1243.22
-700.944 682.21 1805.84 259.056 1282.21
-160.477 426.503 1128.97 799.523 1026.5
-111.59 416.799 1103.29 848.41 1016.8
-15.4928 305.796 809.457 944.507 905.796
18.2532 315.423 834.941 978.253 915.423
53.9459 324.19 858.148 1013.95 924.19
94.0994 342.26 905.981 1054.1 942.26
132.462 345.432 914.375 1092.46 945.432
165.786 336.964 891.96 1125.79 936.964
203.95 339.614 898.976 1163.95 939.614
-1217.22 680.495 1788.37 -257.216 1280.5
-1102.74 656.018 1724.04 -142.744 1256.02
-1027.23 652.948 1715.97 -67.2266 1252.95
-1001.88 683.661 1796.69 -41.8784 1283.66
-910.889 670.902 1763.16 49.1112 1270.9
-869.589 695.697 1828.32 90.4112 1295.7
-743.796 651.196 1711.37 216.204 1251.2
-701.246 677.894 1781.53 258.754 1277.89
-166.488 429.173 1127.88 793.512 1029.17
-118.109 421.557 1107.87 841.891 1021.56
-20.1222 311.166 817.755 939.878 911.166
13.6363 316.49 831.746 973.636 916.49
49.5781 328.681 863.786 1009.58 928.681
88.2465 341.256 896.834 1048.25 941.256
127.719 348.629 916.211 1087.72 948.629
165.024 348.078 914.762 1125.02 948.078
195.821 336.548 884.46 1155.82 936.548
-1218.54 680.664 1776.05 -258.544 1280.66
-1111.34 660.236 1722.75 -151.338 1260.24
-1036.5 657.568 1715.79 -76.4965 1257.57
-1004.42 683.617 1783.76 -44.4205 1283.62
-915.538 672.059 1753.6 44.462 1272.06
-869.24 692.454 1806.81 90.7605 1292.45
-746.707 650.261 1696.72 213.293 1250.26
-702.876 674.977 1761.21 257.124 1274.98
-181.317 453.944 1184.47 778.683 1053.94
-123.676 422.91 1103.5 836.324 1022.91
-24.5604 312.988 816.678 935.44 912.988
9.07024 318.095 830.003 969.07 918.095
44.6223 329.318 859.287 1004.62 929.318
83.4213 344.028 897.67 1043.42 944.028
122.757 351.268 916.56 1082.76 951.268
160.503 351.63 917.505 1120.5 951.63
188.884 335.235 874.726 1148.88 935.235
237.561 354.345 924.59 1197.56 954.345
-1109.65 658.354 1705.67 -149.646 1258.35
-1049.03 664.255 1720.96 -89.0312 1264.26
-1012 687.021 1779.94 -52.004 1287.02
-923.406 675.594 1750.34 36.5943 1275.59
-868.761 689.177 1785.53 91.2386 1289.18
-749.643 649.406 1682.49 210.357 1249.41
-698.784 666.7 1727.3 261.216 1266.7
-187.712 456.986 1183.97 772.288 1056.99
-129.452 425.084 1101.31 830.548 1025.08
-29.1154 316.202 819.221 930.885 916.202
4.52934 320.124 829.382 964.529 920.124
40.1356 333.419 863.826 1000.14 933.419
77.4865 341.948 885.923 1037.49 941.948
118.196 355.124 920.06 1078.2 955.124
155.104 353.266 915.246 1115.1 953.266
188.34 345.397 894.86 1148.34 945.397
231.406 355.183 920.213 1191.41 955.183
-1113.66 659.872 1697.58 -153.665 1259.87
-1050.15 663.719 1707.48 -90.1481 1263.72
-1006.25 681.398 1752.96 -46.2462 1281.4
-933.493 680.757 1751.31 26.5067 1280.76
-871.097 688.191 1770.44 88.9032 1288.19
-758.606 653.803 1681.97 201.394 1253.8
-135.089 426.88 1098.19 824.911 1026.88
-33.2887 315.547 811.775 926.711 915.547
-0.004765 321.798 827.857 959.995 921.798
35.0815 332.635 855.735 995.081 932.635
72.6848 344.567 886.43 1032.68 944.567
113.255 357.92 920.784 1073.26 957.92
150.63 357.023 918.477 1110.63 957.023
184.507 349.852 900.028 1144.51 949.852
224.973 355.483 914.514 1184.97 955.483
-1113.6 658.984 1683.46 -153.603 1258.98
-1052.78 664.156 1696.67 -92.7771 1264.16
-1010.69 682.72 1744.1 -50.6927 1282.72
-942.104 684.844 1749.52 17.8956 1284.84
-878.494 691.235 1765.85 81.5063 1291.24
-761.172 652.716 1667.45 198.828 1252.72
-141.007 429.623 1097.53 818.993 1029.62
-37.6331 316.979 809.765 922.367 916.979
-4.53349 324.272 828.396 955.466 924.272
30.5013 336.054 858.495 990.501 936.054
68.3578 349.644 893.212 1028.36 949.644
108.316 360.752 921.587 1068.32 960.752
145.614 359.546 918.508 1105.61 959.546
177.874 348.952 891.443 1137.87 948.952
219.978 357.989 914.53 1179.98 957.989
-1239 689.851 1750.09 -279.004 1289.85
-1117.81 660.631 1675.96 -157.806 1260.63
-1059.02 666.882 1691.82 -99.0171 1266.88
-1019.89 687.262 1743.53 -59.8929 1287.26
-949.061 687.737 1744.73 10.9388 1287.74
-883.758 692.622 1757.12 76.2415 1292.62
-764.822 652.61 1655.62 195.178 1252.61
-146.076 429.884 1090.58 813.924 1029.88
-42.3734 321.571 815.799 917.627 921.571
-9.03578 325.584 825.979 950.964 925.584
25.7714 337.921 857.277 985.771 937.921
62.9581 349.22 885.942 1022.96 949.22
102.096 359.113 911.039 1062.1 959.113
140.76 362.488 919.603 1100.76 962.488
176.834 359.176 911.199 1136.83 959.176
214.958 360.455 914.443 1174.96 960.455
-1134.86 669.871 1687.7 -174.862 1269.87
-1059.66 666.096 1678.19 -99.6587 1266.1
-1026.22 689.875 1738.1 -66.2219 1289.87
-953.023 688.478 1734.58 6.97668 1288.48
-892.45 696.711 1755.33 67.5501 1296.71
-769.088 653.072 1645.38 190.912 1253.07
-700.239 651.782 1642.13 259.761 1251.78
-157.224 447.627 1127.77 802.776 1047.63
-107.718 434.459 1094.6 852.282 1034.46
-13.4941 326.458 822.493 946.506 926.458
20.9589 338.233 852.158 980.959 938.233
57.7801 349.617 880.841 1017.78 949.617
97.7545 363.984 917.039 1057.75 963.984
136.608 367.355 925.529 1096.61 967.354
172.454 362.931 914.384 1132.45 962.931
209.289 361.798 911.529 1169.29 961.798
-1134.39 668.764 1673.39 -174.386 1268.76
-1064.96 668.251 1672.11 -104.957 1268.25
-1021.16 684.858 1713.66 -61.1593 1284.86
-959.561 691.098 1729.27 0.439392 1291.1
-905.13 703.908 1761.33 54.8702 1303.91
-777.883 657.401 1644.96 182.117 1257.4
-705.345 652.689 1633.17 254.655 1252.69
-165.526 456.605 1142.52 794.474 1056.6
-113.12 435.209 1088.98 846.88 1035.21
-17.8539 326.209 816.244 942.146 926.209
16.1186 336.765 842.656 976.119 936.765
52.5893 349.529 874.597 1012.59 949.529
92.4589 365.376 914.247 1052.46 965.376
131.01 368.371 921.744 1091.01 968.371
167.517 365.565 914.721 1127.52 965.565
203.81 363.405 909.315 1163.81 963.405
-1140.51 671.557 1668.96 -180.508 1271.56
-1064.45 666.779 1657.09 -104.451 1266.78
-1014.37 678.73 1686.79 -54.3685 1278.73
-974.481 699.75 1739.03 -14.4809 1299.75
-919.576 712.454 1770.6 40.4241 1312.45
-785.271 660.547 1641.6 174.729 1260.55
-709.287 652.566 1621.77 250.713 1252.57
-722.56 733.546 1823.02 237.44 1333.55
-175.599 469.971 1167.98 784.401 1069.97
-119.146 438.454 1089.65 840.854 1038.45
-22.3782 329.354 818.514 937.622 929.354
11.4548 337.388 838.48 971.455 937.388
47.6273 350.59 871.291 1007.63 950.59
87.0331 366.075 909.775 1047.03 966.075
126.511 372.483 925.699 1086.51 972.483
162.482 367.988 914.53 1122.48 967.988
198.689 365.615 908.632 1158.69 965.615
-1146.62 674.348 1664.59 -186.622 1274.35
-1063.5 665.051 1641.64 -103.503 1265.05
-1009.15 673.7 1662.99 -49.149 1273.7
-984.292 704.721 1739.57 -24.2917 1304.72
-937.391 723.574 1786.1 22.6089 1323.57
-797.333 667.62 1647.98 162.667 1267.62
-716.098 655.118 1617.12 243.902 1255.12
-720.494 726.399 1793.08 239.506 1326.4
-182.384 474.204 1170.55 777.616 1074.2
-124.496 439.291 1084.37 835.504 1039.29
-26.7266 330.031 814.663 933.273 930.031
6.83279 337.792 833.822 966.833 937.792
43.4226 357.571 882.645 1003.42 957.571
82.07 368.609 909.892 1042.07 968.609
121.268 374.447 924.303 1081.27 974.447
157.799 371.232 916.366 1117.8 971.232
190.331 361.656 892.728 1150.33 961.656
-1152.05 676.741 1659.3 -192.049 1276.74
-1077.75 672.826 1649.7 -117.745 1272.83
-1022.73 681.237 1670.33 -62.7317 1281.24
-988.284 705.537 1729.91 -28.2844 1305.54
-949.312 730.115 1790.17 10.6877 1330.11
-808.006 673.511 1651.38 151.994 1273.51
-723.461 658.194 1613.83 236.539 1258.19
-711.843 712.821 1747.77 248.157 1312.82
-191.891 485.261 1189.81 768.109 1085.26
-130.656 443.042 1086.3 829.344 1043.04
-31.1562 332.002 814.036 928.844 932.002
2.27627 340.352 834.511 962.276 940.352
38.3583 357.755 877.179 998.358 957.755
76.5772 368.601 903.773 1036.58 968.601
115.81 375.661 921.083 1075.81 975.661
153.529 375.547 920.805 1113.53 975.547
185.111 363.429 891.093 1145.11 963.429
-1187.9 696.987 1697.57 -227.897 1296.99
-1087.87 678.028 1651.39 -127.875 1278.03
-1027.98 683.225 1664.05 -67.9847 1283.23
-998.021 710.464 1730.39 -38.0208 1310.46
-956.605 733.097 1785.52 3.39539 1333.1
-819.463 680.041 1656.29 140.537 1280.04
-728.433 659.122 1605.34 231.567 1259.12
-713.772 710.013 1729.29 246.228 1310.01
-133.637 436.354 1062.77 826.363 1036.35
-35.4371 332.637 810.164 924.563 932.637
-2.28234 342.102 833.216 957.718 942.102
33.4542 358.986 874.338 993.454 958.986
71.3997 369.845 900.786 1031.4 969.845
111.134 379.408 924.078 1071.13 979.408
148.409 377.846 920.273 1108.41 977.846
181.285 367.987 896.262 1141.29 967.987
221.87 374.463 912.034 1181.87 974.463
-1203.62 705.406 1706.71 -243.624 1305.41
-1083.44 674.163 1631.12 -123.437 1274.16
-1034.19 685.854 1659.41 -74.188 1285.85
-1009.84 716.87 1734.45 -49.8406 1316.87
-958.771 732.178 1771.48 1.22852 1332.18
-823.696 680.585 1646.66 136.304 1280.58
-737.328 663.617 1605.6 222.672 1263.62
-699.516 691.308 1672.6 260.484 1291.31
-137.564 433.328 1048.42 822.436 1033.33
-39.793 334.237 808.678 920.207 934.237
-6.85184 345.106 834.974 953.148 945.106
28.59 360.313 871.767 988.59 960.313
66.5472 372.71 901.761 1026.55 972.71
106.575 383.706 928.365 1066.57 983.706
144.716 383.909 928.857 1104.72 983.909
179.202 376.353 910.574 1139.2 976.353
215.821 375.108 907.564 1175.82 975.108
-1084.7 673.865 1619.69 -124.698 1273.87
-1042.16 689.66 1657.65 -82.1562 1289.66
-1012.25 716.603 1722.41 -52.2493 1316.6
-961.501 731.728 1758.76 -1.50134 1331.73
-835.63 687.498 1652.45 124.37 1287.5
-741.315 663.717 1595.29 218.685 1263.72
-694.297 681.776 1638.7 265.703 1281.78
-143.379 436.447 1049.03 816.621 1036.45
-43.9947 334.779 804.667 916.005 934.779
-11.2631 342.72 823.754 948.737 942.72
23.4373 356.807 857.612 983.437 956.807
60.2046 366.573 881.086 1020.2 966.573
100.81 383.619 922.056 1060.81 983.619
139.589 386.312 928.529 1099.59 986.312
173.846 378.018 908.595 1133.85 978.018
210.235 376.471 904.877 1170.24 976.471
-1095.01 679.2 1621.85 -135.015 1279.2
-1058.35 698.899 1668.89 -98.347 1298.9
-1011.23 713.943 1704.81 -51.2285 1313.94
-955.696 724.84 1730.84 4.30377 1324.84
-844.438 691.83 1652.01 115.562 1291.83
-752.846 670.58 1601.27 207.154 1270.58
-148.889 438.651 1047.45 811.111 1038.65
-49.176 342.426 817.675 910.824 942.426
-15.7554 344.729 823.174 944.245 944.729
18.9818 363.613 868.266 978.982 963.613
56.1198 373.857 892.729 1016.12 973.857
96.1452 387.656 925.678 1056.15 987.656
134.663 389.286 929.571 1094.66 989.286
169.606 382.141 912.51 1129.61 982.141
204.97 378.357 903.473 1164.97 978.357
-1097.82 679.878 1612.94 -137.819 1279.88
-1062.42 700.129 1660.99 -102.415 1300.13
-1019.07 717.564 1702.35 -59.0732 1317.56
-957.463 723.754 1717.03 2.53741 1323.75
-858.709 700.62 1662.15 101.291 1300.62
-769.898 682.311 1618.72 190.102 1282.31
-691.566 670.709 1591.19 268.434 1270.71
-711.435 761.851 1807.42 248.565 1361.85
-153.976 439.69 1043.12 806.024 1039.69
-113.311 448.011 1062.86 846.689 1048.01
-20.1263 344.765 817.922 939.874 944.765
13.9846 359.546 852.988 973.985 959.546
50.8296 373.289 885.591 1010.83 973.289
91.0547 390.058 925.374 1051.05 990.058
129.195 390.659 926.8 1089.2 990.659
164.98 385.484 914.522 1124.98 985.484
199.737 380.267 902.146 1159.74 980.267
-1101.2 680.926 1605.02 -141.2 1280.93
-1061.58 698.149 1645.62 -101.581 1298.15
-1027.19 721.379 1700.37 -67.1862 1321.38
-967.201 728.712 1717.66 -7.20148 1328.71
-866.697 704.271 1660.05 93.3033 1304.27
-780.79 688.537 1622.96 179.21 1288.54
-697.706 672.592 1585.38 262.294 1272.59
-718.186 763.464 1799.57 241.814 1363.46
-159.999 443.429 1045.21 800.001 1043.43
-105.833 400.614 944.294 854.167 1000.61
-24.5524 346.361 816.412 935.448 946.361
9.29286 360.769 850.374 969.293 960.769
45.9921 375.741 885.665 1005.99 975.741
86.5486 395.111 931.322 1046.55 995.111
125.461 397.413 936.748 1085.46 997.413
160.874 390.149 919.627 1120.87 990.149
194.714 382.553 901.722 1154.71 982.553
236.04 389.743 918.67 1196.04 989.743
-1110.19 685.448 1605.34 -150.193 1285.45
-1065.72 699.458 1638.15 -105.719 1299.46
-1032.17 723.008 1693.3 -72.1716 1323.01
-958.924 720.139 1686.58 1.07623 1320.14
-883.325 714.921 1674.37 76.6752 1314.92
-789.702 693.008 1623.04 170.298 1293.01
-703.413 674.089 1578.73 256.587 1274.09
-691.678 730.022 1709.73 268.322 1330.02
-165.836 446.616 1045.99 794.164 1046.62
-108.894 395.562 926.417 851.106 995.562
-28.7711 345.655 809.534 931.229 945.655
4.5843 358.427 839.445 964.584 958.427
41.4746 381.142 892.645 1001.47 981.142
81.0899 395.863 927.123 1041.09 995.863
119.748 398.005 932.138 1079.75 998.005
155.03 390.606 914.811 1115.03 990.606
190.179 385.819 903.598 1150.18 985.819
-1123.64 692.713 1612.03 -163.637 1292.71
-1075.22 704.292 1638.98 -115.219 1304.29
-1028.59 718.669 1672.43 -68.5938 1318.67
-957.914 717.091 1668.76 2.08569 1317.09
-894.761 721.339 1678.65 65.2388 1321.34
-798.959 697.779 1623.82 161.041 1297.78
-709.172 675.668 1572.37 250.828 1275.67
-683.464 716.291 1666.9 276.536 1316.29
-175.915 460.901 1072.58 784.085 1060.9
-114.823 401.114 933.443 845.177 1001.11
-33.1936 347.835 809.458 926.806 947.835
-0.00482743 360.403 838.703 959.995 960.403
36.205 379.498 883.14 996.205 979.498
75.6113 396.248 922.121 1035.61 996.248
115.119 402.186 935.939 1075.12 1002.19
151.268 396.354 922.367 1111.27 996.354
185.411 388.648 904.435 1145.41 988.648
-1135.37 698.919 1616.19 -175.372 1298.92
-1084.5 708.985 1639.47 -124.503 1308.98
-1028.13 716.547 1656.96 -68.1335 1316.55
-971.931 725.305 1677.21 -11.9313 1325.3
