ply
format ascii 1.0
element vertex 1356
property float x
property float y
property float z
property float u
property float v
end_header
60.952 -298.521 543.899 0 0
-24.0732 -598.04 1100.58 0 0
59.89 -283.484 521.698 0 0
14.9768 -592.713 1096.29 0 0
-21.0477 -591.542 1099.68 0 0
59.2642 -271.241 504.24 0 0
-59.4715 -612.781 1144.98 0 0
17.9537 -586.076 1095.09 0 0
-17.9117 -581.308 1091.75 0 0
-54.8654 -590.628 1114.98 0 0
-14.8706 -573.147 1087.59 0 0
-51.5102 -581.064 1108.36 0 0
-11.8893 -566.8 1086.82 0 0
-48.2601 -572.39 1103.32 0 0
-8.93457 -561.868 1088.78 0 0
-45.2948 -566.99 1104.56 0 0
-5.96223 -556.267 1089.47 0 0
-42.1602 -559.421 1101.54 0 0
-2.99451 -552.202 1093.21 0 0
-38.9055 -549.955 1094.69 0 0
61.8228 -307.115 611.312 0 0
-79.036 -577.841 1156.48 0 0
-0.00628536 -545.621 1092 0 0
-34.8732 -528.217 1062.98 0 0
60.015 -287.129 577.819 0 0
-76.0385 -572.751 1158.98 0 0
69.9502 -247.981 501.798 0 0
-31.9124 -521.504 1061.15 0 0
55.8347 -257.416 523.787 0 0
-71.4242 -555.174 1135.98 0 0
74.0996 -254.789 521.341 0 0
-29.2068 -519.168 1068.28 0 0
55.5332 -246.849 507.934 0 0
-67.6015 -543.197 1124.05 0 0
-26.4539 -516.592 1075.07 0 0
-63.6416 -529.667 1108.59 0 0
-23.4233 -508.717 1070.87 0 0
-60.0946 -519.142 1099.14 0 0
-20.5367 -503.857 1072.98 0 0
-56.8844 -511.284 1095.17 0 0
-17.6188 -498.416 1073.9 0 0
-53.6391 -502.936 1090.06 0 0
-95.4119 -533.611 1163.44 0 0
-14.7169 -493.672 1076.36 0 0
-50.6931 -497.306 1090.78 0 0
-91.7308 -524.388 1157.12 0 0
-11.7998 -488.824 1078.64 0 0
62.9352 -226.842 500.55 0 0
-47.4538 -488.689 1084.89 0 0
-87.5279 -511.978 1143.53 0 0
-8.91913 -486.623 1086.9 0 0
-44.6315 -484.312 1088.38 0 0
-84.3639 -505.498 1143.01 0 0
-5.93146 -479.331 1083.84 0 0
-41.3348 -474.669 1079.98 0 0
52.4713 -234.375 533.257 0 0
-81.2574 -499.359 1143.26 0 0
-2.96421 -472.665 1082.15 0 0
-38.2318 -466.921 1075.73 0 0
51.7737 -222.21 511.946 0 0
-77.655 -490.096 1136.28 0 0
56.2039 -354.774 822.536 0 0
-35.3889 -462.314 1078.7 0 0
56.3928 -232.697 542.945 0 0
-74.0056 -480.357 1127.99 0 0
57.8197 -346.486 813.635 0 0
-32.3665 -455.378 1076.25 0 0
-70.4668 -471.144 1120.75 0 0
59.2084 -337.28 802.315 0 0
-29.3557 -448.441 1073.72 0 0
-67.0638 -462.675 1115.1 0 0
59.9526 -325.039 783.384 0 0
-108.448 -480.948 1166.83 0 0
-26.4216 -442.586 1073.76 0 0
-63.9011 -455.761 1113.11 0 0
61.2707 -316.504 772.998 0 0
-104.204 -469.814 1155.14 0 0
-23.6486 -439.728 1081.17 0 0
42.1802 -369.23 907.832 0 0
-61.0991 -451.454 1117.51 0 0
63.1088 -310.924 769.646 0 0
-100.907 -462.861 1153.55 0 0
-20.881 -437.753 1090.98 0 0
43.2296 -352.586 878.721 0 0
-58.2076 -446.597 1120.65 0 0
65.2855 -307.059 770.506 0 0
-97.0653 -453.337 1145.42 0 0
45.145 -344.074 869.352 0 0
-55.6554 -444.552 1131.03 0 0
67.5059 -303.36 771.813 0 0
-94.5968 -450.228 1153.5 0 0
47.0691 -336.092 861.079 0 0
-53.0257 -442.22 1140.97 0 0
69.6507 -299.291 772.202 0 0
-91.9935 -446.59 1160.43 0 0
49.2705 -330.364 858.427 0 0
-50.3801 -440.116 1151.79 0 0
72.2706 -297.164 777.681 0 0
-88.845 -440.363 1160.74 0 0
51.5255 -325.094 856.906 0 0
-47.2201 -433.713 1151.51 0 0
27.4942 -378.931 1006.06 0 0
75.2402 -296.235 786.502 0 0
-85.7952 -434.64 1162.4 0 0
53.6654 -319.206 853.686 0 0
-123.661 -430.549 1159.94 0 0
-44.2125 -428.775 1155.16 0 0
30.2383 -373.359 1005.87 0 0
-83.0866 -430.715 1169 0 0
56.1022 -315.119 855.261 0 0
-119.136 -419.439 1146.9 0 0
-41.012 -422.019 1153.96 0 0
33.0243 -368.267 1006.98 0 0
-80.2545 -426.254 1174.32 0 0
58.8367 -312.551 861.067 0 0
-116.145 -413.682 1148.33 0 0
-37.8726 -415.873 1154.41 0 0
35.7971 -362.968 1007.55 0 0
-76.5395 -417.082 1166.62 0 0
2.94732 -386.303 1080.53 0 0
61.4414 -309.106 864.598 0 0
-113.807 -410.291 1156.46 0 0
-34.8366 -410.971 1158.38 0 0
38.6582 -358.451 1010.35 0 0
-73.087 -409.228 1162.42 0 0
5.64726 -364.048 1034.09 0 0
64.4229 -307.329 872.975 0 0
-111.258 -406.205 1162.87 0 0
-31.6823 -404.793 1158.82 0 0
41.5784 -354.279 1014.21 0 0
-70.263 -404.91 1168.3 0 0
8.41185 -355.771 1026.52 0 0
67.4269 -305.354 881.049 0 0
-108.887 -402.833 1171.55 0 0
-28.6081 -399.762 1162.62 0 0
44.4591 -349.587 1016.69 0 0
-67.2645 -399.681 1171.7 0 0
11.1926 -349.373 1024.21 0 0
70.2565 -302.351 886.364 0 0
-106.241 -398.518 1177.72 0 0
-25.393 -392.831 1160.92 0 0
47.3245 -344.657 1018.55 0 0
-64.5977 -396.566 1181.5 0 0
13.9835 -343.562 1023.58 0 0
-101.612 -386.713 1161.6 0 0
-21.6819 -377.13 1132.82 0 0
49.9868 -338.265 1016.07 0 0
-61.5834 -391.476 1185.64 0 0
16.748 -337.293 1021.54 0 0
-98.0253 -378.773 1156.75 0 0
-17.2406 -344.097 1050.85 0 0
52.7441 -332.583 1015.69 0 0
-58.3165 -384.822 1185.11 0 0
19.5448 -331.784 1021.77 0 0
-93.5483 -367.286 1140.71 0 0
-14.2127 -334.691 1039.48 0 0
55.4761 -326.77 1014.88 0 0
-137.545 -382.465 1198.03 0 0
-55.1841 -379.078 1187.42 0 0
22.3623 -326.556 1022.9 0 0
-91.2201 -364.203 1150.67 0 0
-11.3328 -327.892 1035.95 0 0
58.0877 -320.326 1012.05 0 0
-130.551 -365.501 1164.84 0 0
-51.1569 -366.981 1169.55 0 0
25.1718 -321.137 1023.45 0 0
-88.2084 -358.456 1152.42 0 0
-8.47581 -321.271 1032.87 0 0
60.8996 -315.028 1012.8 0 0
-124.352 -350.633 1137.27 0 0
-45.3096 -340.66 1104.92 0 0
27.9749 -315.605 1023.65 0 0
-84.9615 -351.755 1151.11 0 0
-5.64419 -315.159 1031.35 0 0
63.6532 -309.419 1012.57 0 0
-124.453 -353.532 1167.37 0 0
-40.1042 -317.329 1047.82 0 0
30.7102 -309.376 1021.56 0 0
-82.0907 -346.626 1154.99 0 0
-2.81058 -307.935 1026.06 0 0
66.666 -305.005 1016.3 0 0
-120.764 -345.727 1162.58 0 0
-36.5769 -306.052 1029.16 0 0
33.6228 -304.881 1025.23 0 0
100.301 -294.937 991.788 0 0
-78.6812 -339.223 1151.29 0 0
-0.00589381 -301.709 1023.97 0 0
69.6787 -300.461 1019.74 0 0
-113.555 -327.737 1122.72 0 0
-33.4604 -297.726 1019.92 0 0
36.3742 -298.858 1023.79 0 0
105.695 -297.056 1017.62 0 0
-73.4371 -323.686 1119.33 0 0
2.78392 -295.142 1020.62 0 0
72.7214 -295.925 1023.33 0 0
-111.739 -325.246 1135.46 0 0
-30.4904 -290.416 1013.86 0 0
39.0624 -292.435 1020.91 0 0
109.033 -292.988 1022.84 0 0
-64.945 -293.054 1032.93 0 0
5.58481 -290.138 1022.65 0 0
75.6662 -290.898 1025.33 0 0
-112.661 -330.859 1177.52 0 0
-27.635 -284.009 1010.79 0 0
41.8436 -286.789 1020.68 0 0
112.464 -289.029 1028.65 0 0
-61.5732 -284.87 1023.81 0 0
8.34691 -283.419 1018.59 0 0
78.4425 -285.197 1024.99 0 0
-108.456 -321.497 1166.91 0 0
-24.7601 -277.23 1006.24 0 0
44.7253 -281.787 1022.78 0 0
115.856 -284.831 1033.83 0 0
-58.1001 -276.067 1012.06 0 0
11.1145 -277.434 1017.07 0 0
81.0549 -278.942 1022.6 0 0
-93.6872 -280.457 1038.56 0 0
-21.9006 -270.383 1001.25 0 0
47.4457 -275.759 1021.16 0 0
-145.991 -317.249 1186.82 0 0
-55.0231 -269.016 1006.38 0 0
13.8992 -271.964 1017.41 0 0
83.8493 -273.349 1022.59 0 0
-90.198 -272.812 1031.12 0 0
-19.1522 -264.75 1000.65 0 0
50.2946 -270.486 1022.33 0 0
-141.626 -308.321 1177.5 0 0
-51.9364 -261.821 999.913 0 0
16.6291 -265.586 1014.29 0 0
86.8071 -268.261 1024.51 0 0
-86.1719 -263.482 1016.87 0 0
-16.3556 -258.309 996.906 0 0
52.9763 -264.334 1020.16 0 0
-139.383 -304.013 1185.8 0 0
-48.7499 -253.993 990.7 0 0
19.3369 -259.173 1010.9 0 0
89.7644 -263.12 1026.3 0 0
-81.7701 -252.906 997.09 0 0
-13.5786 -251.894 993.1 0 0
55.6675 -258.305 1018.38 0 0
-137.994 -301.578 1201.94 0 0
-45.7548 -247.027 984.522 0 0
22.0887 -253.516 1010.38 0 0
92.2947 -256.744 1023.25 0 0
-78.0822 -244.442 984.95 0 0
-10.8129 -245.306 988.432 0 0
58.3735 -252.402 1017.03 0 0
-121.021 -265.032 1079.81 0 0
-43.0158 -241.376 983.428 0 0
24.7616 -247.105 1006.77 0 0
95.3602 -251.86 1026.14 0 0
-75.0035 -237.832 979.903 0 0
-8.10202 -239.633 987.323 0 0
61.2648 -247.292 1018.88 0 0
-112.12 -246.07 1025.39 0 0
-40.1186 -234.777 978.331 0 0
27.5008 -241.489 1006.3 0 0
98.4652 -247.003 1029.28 0 0
-72.0304 -231.528 975.91 0 0
-5.37677 -233.088 982.486 0 0
63.971 -241.424 1017.62 0 0
-107.381 -236.207 1007.24 0 0
-37.3032 -228.563 974.64 0 0
30.1957 -235.553 1004.45 0 0
101.409 -241.686 1030.6 0 0
-69.2499 -225.825 974.322 0 0
-2.68784 -227.432 981.256 0 0
66.6964 -235.663 1016.77 0 0
-103.277 -227.721 994.228 0 0
-34.6145 -223.076 973.948 0 0
32.8543 -229.454 1001.79 0 0
104.23 -236.06 1030.64 0 0
-66.4435 -220.024 972.227 0 0
-0.00563358 -221.503 978.763 0 0
69.5184 -230.245 1017.39 0 0
-100.236 -221.573 991.039 0 0
-31.9285 -217.59 973.223 0 0
35.4178 -222.877 996.875 0 0
-145.046 -239.148 1082.89 0 0
-64.3498 -216.607 980.821 0 0
2.66905 -216.096 978.506 0 0
72.3729 -224.912 1018.43 0 0
-96.8939 -214.751 984.601 0 0
-29.2502 -212.138 972.624 0 0
38.1265 -217.335 996.45 0 0
-140.111 -229.985 1067.83 0 0
-61.4737 -210.577 977.718 0 0
5.36221 -211.476 981.891 0 0
75.202 -219.477 1019.04 0 0
-94.1986 -209.359 984.56 0 0
-26.6268 -207.094 973.909 0 0
40.8945 -212.117 997.531 0 0
114.089 -221.895 1043.51 0 0
-135.23 -220.942 1052.56 0 0
-58.6109 -204.568 974.554 0 0
8.06492 -206.589 984.183 0 0
78.153 -214.36 1021.2 0 0
-91.8547 -204.751 988.297 0 0
-23.9124 -201.331 971.788 0 0
43.7126 -207.097 999.621 0 0
117.239 -216.741 1046.17 0 0
-131.468 -213.749 1045.52 0 0
-55.9512 -199.255 974.627 0 0
10.7682 -201.453 985.377 0 0
-179.562 -228.447 1132.56 0 0
-89.1707 -199.387 988.49 0 0
-21.2771 -196.211 972.746 0 0
46.3686 -201.301 997.977 0 0
120.687 -212.056 1051.3 0 0
-128.985 -208.639 1048.57 0 0
-53.2891 -193.934 974.663 0 0
13.5233 -196.964 989.892 0 0
-172.834 -217.681 1109.25 0 0
-86.4884 -194.027 988.716 0 0
-18.6842 -191.571 976.197 0 0
49.1851 -196.198 999.778 0 0
-127.556 -205.22 1060.52 0 0
-50.858 -189.474 979.15 0 0
16.1713 -190.87 986.365 0 0
-169.008 -210.628 1104.06 0 0
-84.7035 -190.688 999.544 0 0
-16.0452 -186.575 977.986 0 0
51.8794 -190.591 999.036 0 0
-125.43 -200.659 1067.1 0 0
-48.3161 -184.635 981.885 0 0
18.9076 -185.872 988.462 0 0
-166.531 -205.258 1107.66 0 0
-83.0894 -187.75 1013.18 0 0
-13.382 -181.366 978.725 0 0
54.5325 -184.866 997.614 0 0
-121.238 -192.797 1055.99 0 0
-45.6123 -179.189 981.456 0 0
21.6569 -180.865 990.633 0 0
-162.253 -197.68 1099.19 0 0
-80.0432 -181.583 1009.69 0 0
-10.6985 -175.88 977.975 0 0
57.2268 -179.31 997.048 0 0
-116.769 -184.523 1041.87 0 0
-42.8805 -173.625 980.334 0 0
24.3834 -175.583 991.393 0 0
-156.693 -188.595 1081.55 0 0
-77.0547 -175.543 1006.7 0 0
-8.05598 -171.185 981.712 0 0
60.3355 -174.971 1003.42 0 0
-113.123 -177.574 1034.57 0 0
-40.1546 -168.072 979.208 0 0
27.108 -170.256 991.931 0 0
-153.338 -182.209 1078.75 0 0
-74.0104 -169.37 1002.74 0 0
-5.36432 -165.565 980.21 0 0
-201.582 -191.475 1152.25 0 0
-109.364 -170.467 1025.83 0 0
-37.3404 -162.122 975.614 0 0
29.7313 -164.346 989 0 0
-147.787 -173.26 1060.08 0 0
-70.6914 -162.559 994.603 0 0
-2.69052 -160.537 982.231 0 0
-195.646 -182.576 1136.08 0 0
-105.728 -163.572 1017.83 0 0
-34.6735 -156.788 975.61 0 0
32.524 -159.377 991.724 0 0
104.032 -165.317 1028.68 0 0
-142.927 -165.197 1045.72 0 0
-67.8597 -156.86 992.95 0 0
-0.0056473 -154.995 981.146 0 0
-192.923 -176.715 1138.33 0 0
-101.876 -156.366 1007.25 0 0
-32.1438 -152.102 979.786 0 0
35.3533 -154.473 995.058 0 0
107.229 -160.269 1032.39 0 0
-139.187 -158.476 1039.14 0 0
-64.7523 -150.518 986.956 0 0
2.68177 -149.94 983.172 0 0
-188.554 -169.362 1130.79 0 0
-98.723 -150.251 1003.19 0 0
-29.4683 -146.759 979.875 0 0
37.9877 -148.698 992.823 0 0
110.576 -155.363 1037.32 0 0
-135.121 -151.422 1029.8 0 0
-62.0187 -145.038 986.385 0 0
5.37463 -144.712 984.165 0 0
-181.59 -159.773 1107.18 0 0
-95.5245 -144.078 998.418 0 0
-26.9473 -142.234 985.634 0 0
40.845 -143.776 996.323 0 0
113.98 -150.443 1042.52 0 0
-131.358 -144.748 1022.42 0 0
-59.3371 -139.68 986.629 0 0
8.06601 -139.353 984.315 0 0
-175.336 -150.942 1087.16 0 0
-92.1862 -137.71 991.864 0 0
-24.0972 -135.965 979.295 0 0
43.5327 -138.216 995.508 0 0
117.018 -144.977 1044.2 0 0
-127.385 -137.883 1013.06 0 0
-56.8245 -134.723 989.839 0 0
10.7551 -133.953 984.181 0 0
-168.99 -142.16 1065.88 0 0
-89.5318 -132.372 992.493 0 0
-21.4525 -130.807 980.765 0 0
46.3016 -132.911 996.535 0 0
120.905 -140.467 1053.19 0 0
-123.961 -131.649 1007.73 0 0
-53.8786 -128.738 985.445 0 0
13.4374 -128.497 983.601 0 0
-164.785 -135.273 1057.59 0 0
-86.287 -126.168 986.413 0 0
-18.7959 -125.608 982.034 0 0
49.2386 -128.017 1000.87 0 0
-120.79 -125.707 1004.27 0 0
-51.0797 -123.097 983.419 0 0
16.0782 -122.755 980.684 0 0
86.0359 -127.101 1015.4 0 0
-159.888 -127.886 1044.48 0 0
-83.5055 -120.652 985.407 0 0
-16.126 -120.347 982.91 0 0
51.8698 -122.299 998.852 0 0
-117.272 -119.429 997.692 0 0
-48.4225 -117.796 984.046 0 0
18.7351 -117.245 979.447 0 0
89.1494 -122.012 1019.27 0 0
-156.011 -121.381 1037.69 0 0
-80.8863 -115.371 986.314 0 0
-13.4127 -114.746 980.968 0 0
54.6097 -116.859 999.027 0 0
-114.083 -113.516 993.669 0 0
-45.6678 -112.257 982.65 0 0
21.4434 -112.053 980.864 0 0
92.2532 -116.842 1022.79 0 0
-151.295 -114.288 1024.96 0 0
-77.821 -109.46 981.656 0 0
-10.7155 -109.222 979.522 0 0
57.406 -111.524 1000.17 0 0
-111.051 -107.777 990.849 0 0
-43.0624 -107.085 984.495 0 0
24.1192 -106.667 980.651 0 0
95.5226 -111.805 1027.89 0 0
-146.946 -107.553 1014.28 0 0
-75.2297 -104.221 982.858 0 0
-8.04871 -104.005 980.826 0 0
60.2029 -106.168 1001.22 0 0
-107.886 -101.928 986.672 0 0
-40.2824 -101.479 982.323 0 0
26.8191 -101.379 981.356 0 0
98.5185 -106.387 1029.83 0 0
-142.876 -101.089 1005.15 0 0
-72.3492 -98.5834 980.23 0 0
-5.37322 -98.745 981.837 0 0
62.8838 -100.605 1000.33 0 0
-105.005 -96.3659 984.951 0 0
-37.3174 -95.3935 975.013 0 0
29.5015 -96.014 981.354 0 0
102.63 -102.047 1043.01 0 0
-139.564 -95.2091 1001.1 0 0
-70.0309 -93.7077 985.31 0 0
-2.68903 -93.3634 981.689 0 0
65.5652 -95.0594 999.522 0 0
-101.58 -90.3292 977.891 0 0
-34.6804 -90.1364 975.804 0 0
32.1987 -90.6907 981.805 0 0
106.428 -97.2092 1052.37 0 0
-136.371 -89.437 997.758 0 0
-66.6453 -87.4132 975.18 0 0
-0.00564895 -87.9737 981.433 0 0
-178.874 -91.7223 1055.44 0 0
-98.7497 -84.8484 976.34 0 0
-31.9753 -84.7016 974.651 0 0
34.8919 -85.3465 982.072 0 0
-132.976 -83.5629 992.774 0 0
-63.8417 -81.9049 973.076 0 0
2.68037 -82.7114 982.658 0 0
71.1983 -84.3308 1001.9 0 0
-174.091 -85.0256 1044.06 0 0
-95.9287 -79.3849 974.794 0 0
-29.3009 -79.3454 974.309 0 0
37.6348 -80.102 983.599 0 0
-129.726 -77.8138 988.686 0 0
-61.2205 -76.6336 973.691 0 0
5.36005 -77.2479 981.496 0 0
74.2942 -79.2346 1006.74 0 0
-166.916 -77.3161 1017.71 0 0
-92.9895 -73.8377 971.922 0 0
-26.587 -73.8783 972.457 0 0
-126.972 -72.3793 988.284 0 0
-58.4738 -71.2068 972.275 0 0
8.01392 -71.6231 977.959 0 0
77.4005 -74.0701 1011.37 0 0
-162.563 -71.0656 1007.97 0 0
-90.2196 -68.4385 970.704 0 0
-23.9498 -68.622 973.308 0 0
43.166 -69.596 987.122 0 0
-123.597 -66.6135 982.928 0 0
-55.7642 -65.8302 971.37 0 0
10.7095 -66.4154 980.004 0 0
80.134 -68.5145 1010.98 0 0
-159.735 -65.5252 1007.51 0 0
-87.6766 -63.2113 971.927 0 0
-21.2633 -63.2236 972.116 0 0
45.9725 -64.3511 989.452 0 0
-120.602 -61.0837 980.42 0 0
-53.2183 -60.6443 973.367 0 0
13.3553 -60.9076 977.593 0 0
82.6693 -62.8143 1008.2 0 0
-155.534 -59.464 998.217 0 0
-84.7025 -57.6818 968.299 0 0
-18.564 -57.7783 969.92 0 0
-206.423 -62.2039 1094.43 0 0
-117.035 -55.3047 973.044 0 0
-50.3888 -55.1383 970.117 0 0
15.983 -55.4091 974.881 0 0
85.7123 -57.4953 1011.59 0 0
-152.14 -53.7719 993.873 0 0
-81.7731 -52.2078 964.964 0 0
-15.9196 -52.4983 970.333 0 0
51.3288 -53.4776 988.433 0 0
-114.653 -50.1068 975.412 0 0
-47.7111 -49.8077 969.589 0 0
18.6562 -50.1021 975.32 0 0
88.5042 -51.9808 1011.89 0 0
-148.939 -48.1818 990.652 0 0
-78.8987 -46.792 962.077 0 0
-13.2635 -47.1801 970.055 0 0
53.9422 -47.9953 986.816 0 0
-111.764 -44.6854 973.473 0 0
-44.9737 -44.4211 967.715 0 0
21.3772 -44.8858 977.839 0 0
91.4665 -46.5489 1014.07 0 0
-145.54 -42.564 985.972 0 0
-76.5163 -41.6672 965.198 0 0
-10.6375 -41.9781 972.399 0 0
-190.135 -42.6153 1053.89 0 0
-108.932 -39.3015 971.94 0 0
-42.3352 -39.1369 967.867 0 0
24.0469 -39.5349 977.71 0 0
94.0667 -40.9304 1012.22 0 0
-142.991 -37.2117 986.976 0 0
-73.5799 -36.2438 961.303 0 0
-7.97737 -36.6521 972.133 0 0
59.4526 -37.2782 988.738 0 0
-183.774 -36.1689 1034.3 0 0
-106.002 -33.9009 969.446 0 0
-39.6993 -33.854 968.104 0 0
26.7696 -34.254 979.545 0 0
96.6402 -35.3261 1010.2 0 0
-139.788 -31.7016 983.425 0 0
-70.9072 -30.9688 960.692 0 0
-5.33954 -31.452 975.683 0 0
62.1993 -31.8955 989.439 0 0
-178.846 -30.1602 1022.3 0 0
-103.165 -28.5492 967.689 0 0
-37.0509 -28.5598 968.048 0 0
29.3876 -28.8407 977.568 0 0
99.7326 -29.9027 1013.57 0 0
-136.817 -26.271 981.396 0 0
-68.3315 -25.7357 961.4 0 0
-2.6639 -26.0333 972.516 0 0
65.0057 -26.5279 990.992 0 0
-174.975 -24.4212 1016.04 0 0
-100.345 -23.2185 966.005 0 0
-34.3449 -23.2271 966.364 0 0
32.1544 -23.5658 980.454 0 0
102.807 -24.4339 1016.57 0 0
-134.008 -20.8862 980.472 0 0
-65.3646 -20.3743 956.44 0 0
-0.00559173 -20.6949 971.492 0 0
67.4482 -21.0273 987.095 0 0
-171.357 -18.7745 1011.08 0 0
-97.5643 -17.9118 964.62 0 0
-31.7447 -17.9675 967.62 0 0
34.874 -18.2265 981.568 0 0
105.473 -18.8563 1015.49 0 0
-130.854 -15.47 976.932 0 0
-62.9823 -15.2015 959.977 0 0
2.64962 -15.3822 971.385 0 0
70.3211 -15.6699 989.553 0 0
-168.366 -13.2293 1009.72 0 0
-94.8995 -12.6346 964.335 0 0
-29.0414 -12.6522 965.681 0 0
37.3816 -12.8003 976.982 0 0
108.852 -13.3789 1021.14 0 0
-127.992 -10.1141 975.469 0 0
-60.2195 -9.9306 957.771 0 0
5.30962 -10.0808 972.261 0 0
72.9688 -10.2521 988.779 0 0
-164.835 -7.67335 1005.02 0 0
-91.8037 -7.32601 959.528 0 0
-26.4829 -7.39565 968.649 0 0
40.0405 -7.45711 976.699 0 0
112.185 -7.83428 1026.1 0 0
-124.94 -4.76663 972.468 0 0
-57.6038 -4.69478 957.808 0 0
7.96716 -4.76557 972.252 0 0
75.5328 -4.83769 986.966 0 0
-161.783 -2.17494 1003.13 0 0
-89.5232 -2.08839 963.212 0 0
-23.7759 -2.09495 966.238 0 0
42.8218 -2.12316 979.25 0 0
115.87 -2.24177 1033.95 0 0
-122.142 0.549091 971.361 0 0
-55.031 0.541876 958.598 0 0
10.6231 0.549508 972.098 0 0
-271.589 3.94874 1197.06 0 0
-158.718 3.30232 1001.1 0 0
-86.9138 3.17821 963.471 0 0
-21.1155 3.18444 965.357 0 0
45.6058 3.23788 981.56 0 0
-203.603 6.41854 1064.06 0 0
-119.453 5.85769 971.079 0 0
-52.4212 5.78355 958.789 0 0
13.263 5.85622 970.836 0 0
81.6008 6.00298 995.166 0 0
-155.267 8.73496 996.508 0 0
-83.9825 8.41554 960.068 0 0
-18.4663 8.45713 964.812 0 0
48.3616 8.61691 983.04 0 0
-199.726 12.1766 1058.92 0 0
-116.247 11.1138 966.498 0 0
-49.8387 11.0336 959.527 0 0
15.9615 11.1951 973.57 0 0
84.5366 11.4727 997.71 0 0
-152.341 14.164 995.189 0 0
-81.4183 13.6742 960.777 0 0
-15.8609 13.7593 966.756 0 0
51.009 13.9802 982.274 0 0
-195.507 17.8446 1051.8 0 0
-113.492 16.3811 965.534 0 0
-47.2292 16.2838 959.797 0 0
18.6508 16.5423 975.036 0 0
87.5215 16.977 1000.66 0 0
-149.174 19.546 992.218 0 0
-78.5066 18.8581 957.296 0 0
-13.243 19.08 968.56 0 0
-190.959 23.3897 1042.66 0 0
-110.604 21.611 963.371 0 0
-44.7323 21.592 962.522 0 0
21.3361 21.8935 975.96 0 0
90.116 22.4125 999.096 0 0
-145.886 24.872 988.311 0 0
-76.1264 24.1665 960.279 0 0
-10.57 24.3162 966.226 0 0
56.6764 24.8505 987.457 0 0
-186.852 28.8955 1035.7 0 0
-107.805 26.8362 961.886 0 0
-42.2354 26.9394 965.586 0 0
23.9906 27.2139 975.422 0 0
93.2582 27.9978 1003.52 0 0
-142.776 30.1886 985.493 0 0
-73.757 29.5185 963.617 0 0
-7.95792 29.7068 969.762 0 0
59.3789 30.2505 987.513 0 0
-183.296 34.4213 1031.61 0 0
-105.449 32.1782 964.387 0 0
-39.4651 32.1116 962.393 0 0
26.6273 32.5103 974.341 0 0
96.3998 33.623 1007.69 0 0
-139.322 35.3831 980.146 0 0
-70.7472 34.6026 958.525 0 0
-5.29979 34.9598 968.419 0 0
62.006 35.6077 986.365 0 0
-180.072 39.9712 1029.3 0 0
-102.613 37.3775 962.511 0 0
-36.9183 37.458 964.584 0 0
29.3314 37.8896 975.698 0 0
-231.364 46.2922 1113.68 0 0
-136.231 40.6187 977.192 0 0
-68.0178 39.7788 956.987 0 0
-2.64999 40.2131 967.435 0 0
64.9474 41.1554 990.103 0 0
-177.151 45.5707 1028.68 0 0
-100.024 42.6574 962.917 0 0
-34.3777 42.8509 967.285 0 0
32.1307 43.4023 979.731 0 0
102.765 45.0158 1016.15 0 0
-132.777 45.6916 971.467 0 0
-65.453 45.0457 957.734 0 0
-0.00558122 45.6069 969.665 0 0
67.7193 46.6132 991.062 0 0
-173.447 50.9324 1023.42 0 0
-97.4281 47.9393 963.273 0 0
-31.8399 48.3002 970.525 0 0
34.8332 48.7926 980.42 0 0
105.755 50.6727 1018.2 0 0
-130.385 51.1055 973.429 0 0
-63.6195 50.9092 969.69 0 0
2.66265 51.249 976.162 0 0
70.7183 52.2455 995.143 0 0
-171.484 56.8036 1028.42 0 0
-95.9571 53.8576 975.081 0 0
-29.2635 53.7462 973.066 0 0
37.7791 54.5364 987.371 0 0
109.003 56.48 1022.56 0 0
-129.032 57.005 983.399 0 0
-60.8942 56.1414 968.501 0 0
5.3343 56.6214 976.78 0 0
73.656 57.8567 998.091 0 0
-168.658 62.4202 1028.33 0 0
-93.2701 59.1745 974.855 0 0
-26.6045 59.0677 973.096 0 0
40.4704 59.923 987.187 0 0
-204.561 65.9314 1039.37 0 0
-126.306 62.3622 983.1 0 0
-58.3732 61.5693 970.602 0 0
8.02389 62.1132 979.176 0 0
76.2192 63.1763 995.934 0 0
-166.057 68.1284 1029.63 0 0
-90.7136 64.5809 976.019 0 0
-24.0632 64.7064 977.917 0 0
43.1299 65.2609 986.297 0 0
-222.769 79.0864 1147.83 0 0
-123.602 67.7274 982.966 0 0
-56.1698 67.4152 978.435 0 0
10.7163 67.5663 980.628 0 0
79.023 68.6918 996.963 0 0
-164.006 74.1018 1034.44 0 0
-88.5982 70.3554 982.144 0 0
-21.4836 70.3587 982.19 0 0
45.9067 70.7775 988.036 0 0
-219.261 85.2174 1145.89 0 0
-120.096 72.6062 976.31 0 0
-53.4412 72.6906 977.445 0 0
13.4308 73.1126 983.121 0 0
81.8695 74.2521 998.443 0 0
-160.741 79.5408 1031.64 0 0
-85.9712 75.7754 982.802 0 0
-18.7738 75.6273 980.881 0 0
48.5515 76.0913 986.899 0 0
-213.059 90.1826 1129.61 0 0
-118.035 78.3467 981.361 0 0
-50.7528 78.0086 977.125 0 0
16.0891 78.3459 981.35 0 0
84.6974 79.8035 999.608 0 0
-157.191 84.7867 1026.87 0 0
-83.12 80.9877 980.858 0 0
-16.1129 81.0916 982.116 0 0
51.2118 81.4271 986.18 0 0
-208.492 95.6789 1121.65 0 0
-116.792 84.7568 993.612 0 0
-48.1385 83.4485 978.275 0 0
18.8075 83.8711 983.23 0 0
-225.924 90.9511 1033.12 0 0
-153.936 90.1379 1023.89 0 0
-80.3531 86.2578 979.811 0 0
-13.3873 86.1964 979.114 0 0
53.8583 86.7393 985.281 0 0
-204.547 101.375 1116.85 0 0
-114.699 90.6808 999.034 0 0
-45.5669 88.9967 980.48 0 0
21.4774 89.173 982.422 0 0
90.2623 90.8337 1000.72 0 0
-146.66 92.8997 993.558 0 0
-77.7814 91.74 981.156 0 0
-10.732 91.7285 981.033 0 0
56.3835 91.852 982.354 0 0
-201.139 107.291 1114.88 0 0
-111.678 95.8934 996.447 0 0
-42.9038 94.3943 980.869 0 0
24.1311 94.4198 981.134 0 0
93.1259 96.4373 1002.1 0 0
-143.104 97.7573 987.758 0 0
-75.635 97.7963 988.152 0 0
-8.0505 97.0928 981.045 0 0
59.2602 97.5377 985.539 0 0
-196.816 112.656 1107.71 0 0
-109.219 101.587 998.864 0 0
-40.4324 100.277 985.983 0 0
26.8964 100.094 984.185 0 0
95.947 102.003 1002.95 0 0
-142.35 104.587 1001.45 0 0
-72.8514 103.082 987.035 0 0
-5.35452 102.182 978.421 0 0
61.8855 102.811 984.448 0 0
-193.25 118.382 1104.63 0 0
-106.413 106.971 998.154 0 0
-37.7641 105.742 986.683 0 0
29.6294 105.627 985.609 0 0
-240.643 127.306 1158.35 0 0
-138.66 109.311 994.615 0 0
-70.3491 108.78 989.787 0 0
-2.6834 107.664 979.632 0 0
64.4336 107.954 982.271 0 0
-189.347 123.843 1099.5 0 0
-103.492 112.219 996.3 0 0
-35.0514 111.086 986.243 0 0
32.2998 110.934 984.886 0 0
-234.406 131.91 1143.37 0 0
-137.143 115.762 1003.41 0 0
-67.7156 114.313 990.841 0 0
-0.00563913 113.03 979.725 0 0
-185.354 129.166 1093.67 0 0
-100.717 117.605 995.787 0 0
-32.2409 116.065 982.747 0 0
34.8506 115.848 980.909 0 0
-230.241 137.54 1138.23 0 0
-138.463 124.913 1033.74 0 0
-65.1162 119.93 992.502 0 0
2.66956 118.262 978.695 0 0
-181.919 134.815 1091 0 0
-98.0867 123.165 996.722 0 0
-29.4735 121.104 980.049 0 0
37.3042 120.476 974.961 0 0
-224.068 141.824 1122.89 0 0
-136.227 131.132 1038.23 0 0
-62.1089 124.765 987.82 0 0
5.35237 123.788 980.088 0 0
-177.907 139.969 1084.72 0 0
-95.9528 129.41 1002.89 0 0
-26.6982 126.007 976.524 0 0
39.9039 125.6 973.367 0 0
-218.797 146.489 1111.7 0 0
-133.492 136.913 1039.03 0 0
-59.5668 130.511 990.448 0 0
8.01893 128.946 978.57 0 0
-174.411 145.456 1081.43 0 0
-93.3107 135.036 1003.96 0 0
-24.0224 131.31 976.256 0 0
42.6659 131.233 975.685 0 0
-213.855 151.22 1101.89 0 0
-130.049 141.936 1034.24 0 0
-56.6667 135.465 987.091 0 0
10.6368 133.58 973.355 0 0
-272.579 168.163 1201.42 0 0
-170.524 150.546 1075.56 0 0
-90.5351 140.476 1003.61 0 0
-21.3851 136.847 977.683 0 0
45.3012 136.472 975.004 0 0
-209.954 156.582 1097.25 0 0
-126.981 147.31 1032.28 0 0
-53.7705 140.344 983.467 0 0
13.2324 138.223 968.6 0 0
-259.122 168.13 1156.04 0 0
-166.696 155.597 1069.86 0 0
-87.7878 145.956 1003.57 0 0
-18.7229 142.269 978.22 0 0
47.8059 141.327 971.743 0 0
-205.88 161.736 1091.55 0 0
-123.98 152.733 1030.79 0 0
-51.09 145.743 983.618 0 0
15.8428 143.181 966.329 0 0
-244.598 166.705 1104.71 0 0
-163.7 161.376 1069.39 0 0
-85.1799 151.684 1005.17 0 0
-16.0169 147.322 976.262 0 0
50.2633 146.062 967.915 0 0
-201.822 166.815 1085.77 0 0
-120.831 157.935 1027.97 0 0
-48.3425 150.937 982.421 0 0
18.4524 148.209 964.666 0 0
-160.193 166.614 1065.51 0 0
-82.5327 157.37 1006.39 0 0
-13.3222 152.36 974.353 0 0
52.967 151.52 968.977 0 0
-198.417 172.371 1083.38 0 0
-118.117 163.688 1028.81 0 0
-45.6109 156.149 981.426 0 0
21.1167 153.683 965.924 0 0
-157.391 172.56 1066.25 0 0
-79.7836 162.876 1006.41 0 0
-10.6297 157.255 971.681 0 0
55.4693 156.404 966.427 0 0
-194.72 177.623 1079.31 0 0
-115.435 169.503 1029.97 0 0
-42.8655 161.278 979.991 0 0
23.6679 158.367 962.301 0 0
-232.467 182.412 1090.3 0 0
-153.955 177.787 1062.66 0 0
-77.0455 168.405 1006.58 0 0
-7.95045 162.094 968.853 0 0
57.9868 161.342 964.361 0 0
-191.149 182.929 1075.81 0 0
-112.667 175.206 1030.4 0 0
-40.1994 166.688 980.299 0 0
26.1941 162.979 958.487 0 0
-240.304 197.253 1141.7 0 0
-150.81 183.304 1060.96 0 0
-74.3071 173.939 1006.76 0 0
-5.26251 166.138 961.607 0 0
60.5208 166.334 962.738 0 0
-187.201 187.8 1070.05 0 0
-109.835 180.815 1030.26 0 0
-37.3871 171.439 976.833 0 0
28.7674 167.947 956.935 0 0
-232.836 199.764 1120.77 0 0
-147.363 188.405 1057.04 0 0
-71.5976 179.549 1007.35 0 0
-2.62767 170.982 959.289 0 0
63.1495 171.589 962.695 0 0
-183.73 193.076 1066.89 0 0
-106.943 186.315 1029.52 0 0
-34.6849 176.616 975.93 0 0
31.3666 173.087 956.432 0 0
-227.405 203.77 1109.22 0 0
-144.195 193.809 1055 0 0
-68.7485 184.799 1005.96 0 0
-0.00548783 175.152 953.44 0 0
-181.013 199.128 1068.06 0 0
-105.406 194.297 1042.15 0 0
-32.1336 182.612 979.477 0 0
33.9935 178.382 956.784 0 0
-221.685 207.32 1095.93 0 0
-141.283 199.537 1054.79 0 0
-65.9637 190.197 1005.42 0 0
2.58733 179.439 948.547 0 0
-177.667 204.476 1065.5 0 0
-103.783 202.384 1054.6 0 0
-29.3679 187.403 976.538 0 0
36.4579 182.856 952.842 0 0
-217.331 211.986 1089.12 0 0
-138.371 205.261 1054.57 0 0
-63.1453 195.477 1004.3 0 0
5.17829 184.559 948.212 0 0
-174.241 209.682 1062.37 0 0
-101.236 208.844 1058.12 0 0
-26.5559 191.711 971.316 0 0
38.9879 187.706 951.024 0 0
-213.455 217.026 1084.56 0 0
-135.134 210.473 1051.81 0 0
-60.065 199.852 998.733 0 0
7.76657 189.655 947.774 0 0
-171.51 215.708 1063.44 0 0
-98.8285 215.685 1063.33 0 0
-23.7905 196.112 966.833 0 0
41.431 192.179 947.446 0 0
-209.146 221.531 1077.63 0 0
-132.331 216.343 1052.39 0 0
-57.367 205.426 999.289 0 0
10.3415 194.539 946.329 0 0
-168.53 221.425 1062.98 0 0
-95.8827 221.408 1062.9 0 0
-21.0685 200.643 963.211 0 0
43.959 197.082 946.116 0 0
-205.645 226.81 1074.73 0 0
-129.505 222.182 1052.8 0 0
-54.1841 209.147 991.033 0 0
12.8794 198.96 942.761 0 0
-165.09 226.503 1059.55 0 0
-92.8966 227.021 1061.97 0 0
-18.3046 204.445 956.365 0 0
46.5919 202.457 947.066 0 0
-202.193 232.095 1072 0 0
-126.566 227.827 1052.29 0 0
-51.053 212.805 982.905 0 0
15.3959 203.315 939.073 0 0
-161.767 231.684 1056.76 0 0
-90.2808 233.569 1065.36 0 0
-15.6617 209.289 954.612 0 0
49.1217 207.386 945.931 0 0
-198.208 236.697 1066.33 0 0
-123.911 233.998 1054.17 0 0
-48.0126 216.583 975.717 0 0
17.9047 207.775 936.035 0 0
-158.508 236.909 1054.3 0 0
-87.4564 239.634 1066.43 0 0
-12.9913 213.505 950.151 0 0
51.6705 212.406 945.257 0 0
-195.483 242.761 1067.36 0 0
-120.733 239.175 1051.59 0 0
-45.0485 220.463 969.324 0 0
20.4863 213.131 937.087 0 0
-235.774 251.307 1091.82 0 0
-155.309 242.178 1052.15 0 0
-83.4654 242.339 1052.85 0 0
-10.3672 218.133 947.689 0 0
-192.536 248.559 1067.2 0 0
-117.805 244.812 1051.12 0 0
-42.1639 224.511 963.952 0 0
23.0163 217.956 935.809 0 0
-225.117 248.796 1055.83 0 0
-152.233 247.604 1050.77 0 0
-78.7288 242.373 1028.57 0 0
-7.75488 222.685 945.02 0 0
-189.018 253.586 1063.82 0 0
-114.615 249.867 1048.21 0 0
-39.3204 228.568 958.864 0 0
25.5493 222.855 934.895 0 0
-216.77 248.312 1029.88 0 0
-149.552 253.672 1052.11 0 0
-74.4329 243.147 1008.46 0 0
-5.15688 227.197 942.306 0 0
-185.919 259.136 1062.73 0 0
-111.815 255.746 1048.83 0 0
-36.5594 232.918 955.207 0 0
28.0947 227.883 934.557 0 0
-213.044 252.862 1025.5 0 0
-146.546 259.194 1051.18 0 0
-70.6109 244.964 993.47 0 0
-2.57589 231.875 940.386 0 0
-182.79 264.621 1061.42 0 0
-109.102 261.85 1050.31 0 0
-33.8412 237.389 952.192 0 0
30.559 232.307 931.808 0 0
-220.221 270.737 1074.18 0 0
-143.07 263.83 1046.77 0 0
-67.2022 247.839 983.329 0 0
-0.00540876 236.844 939.703 0 0
-179.468 269.792 1058.94 0 0
-106.379 267.964 1051.77 0 0
-31.1409 241.836 949.217 0 0
33.0382 236.914 929.897 0 0
-221.968 282.571 1097.33 0 0
-140.206 269.547 1046.75 0 0
-64.0517 251.399 976.277 0 0
2.54803 240.549 934.141 0 0
-176.373 275.268 1057.74 0 0
-103.445 273.557 1051.17 0 0
-28.3784 245.572 943.633 0 0
35.5381 241.713 928.803 0 0
-218.027 287.33 1092.61 0 0
-137.591 275.764 1048.63 0 0
-60.7999 254.297 967.002 0 0
5.10367 245.762 934.548 0 0
-173.329 280.802 1056.81 0 0
-100.958 280.378 1055.21 0 0
-25.712 249.886 940.452 0 0
38.2535 247.935 933.109 0 0
-211.918 289.045 1076.75 0 0
-134.606 281.247 1047.7 0 0
-57.7795 257.9 960.73 0 0
7.61502 249.457 929.28 0 0
-170.253 286.265 1055.65 0 0
-98.3373 286.915 1058.05 0 0
-23.0577 254.105 937.052 0 0
40.8959 253.606 935.21 0 0
-211.548 298.563 1090.01 0 0
-131.739 286.969 1047.68 0 0
-54.737 261.165 953.476 0 0
10.1495 254.396 928.764 0 0
-167.31 291.936 1055.29 0 0
-95.2175 292.001 1055.52 0 0
-20.4045 258.067 932.856 0 0
43.3783 258.278 933.619 0 0
-207.984 303.668 1086.95 0 0
-129.297 293.654 1051.11 0 0
-52.0118 265.77 951.301 0 0
12.6811 259.328 928.244 0 0
-164.172 297.247 1053.66 0 0
-90.6599 292.378 1036.4 0 0
-17.878 263.511 934.077 0 0
-203.525 307.362 1079.06 0 0
-126.408 299.362 1050.97 0 0
-49.2761 270.228 948.696 0 0
15.2055 264.178 927.454 0 0
-161.044 302.54 1052.04 0 0
-85.4984 290.142 1008.92 0 0
-15.2863 267.943 931.73 0 0
-199.562 311.679 1073.61 0 0
-123.515 305.057 1050.8 0 0
-46.4451 274.012 943.863 0 0
17.7043 268.697 925.554 0 0
-158.512 308.963 1054.33 0 0
-81.4704 291.119 993.437 0 0
-12.6855 271.88 927.785 0 0
-196.435 317.237 1072.56 0 0
-120.836 311.302 1052.49 0 0
-43.7262 278.288 940.873 0 0
20.1845 273.084 923.28 0 0
-155.776 315.02 1055.31 0 0
-77.8281 293.06 981.745 0 0
-10.145 276.829 927.372 0 0
-192.864 322.034 1069.02 0 0
-118.197 317.694 1054.61 0 0
-41.0729 282.87 939.01 0 0
22.7107 278.163 923.384 0 0
-153.093 321.213 1056.7 0 0
-74.5922 296.234 974.529 0 0
-7.5913 281.204 925.086 0 0
-189.515 327.142 1066.62 0 0
-115.538 324.085 1056.65 0 0
-38.4015 287.22 936.457 0 0
25.2728 283.638 924.776 0 0
-149.646 325.773 1052.77 0 0
-71.5684 300.052 969.651 0 0
-5.05202 285.661 923.144 0 0
-186.27 332.384 1064.73 0 0
-112.649 329.861 1056.65 0 0
-35.6615 290.869 931.746 0 0
27.7116 287.769 921.814 0 0
-147.279 332.684 1056.44 0 0
-68.3989 303.053 962.348 0 0
-2.52541 290.333 921.955 0 0
-183.255 338.012 1064.12 0 0
-109.646 335.286 1055.54 0 0
-33.097 295.806 931.252 0 0
30.2394 292.887 922.062 0 0
-144.125 337.834 1054.49 0 0
-65.3989 306.582 956.943 0 0
-0.00529338 294.637 919.656 0 0
-179.969 343.109 1061.9 0 0
-106.828 341.272 1056.21 0 0
-30.5118 300.506 930.041 0 0
32.803 298.32 923.277 0 0
-141.404 343.991 1055.69 0 0
-62.4946 310.38 952.544 0 0
2.50785 299.583 919.407 0 0
-176.704 348.202 1059.73 0 0
-104.232 348.017 1059.16 0 0
-27.8186 303.94 925.019 0 0
35.3072 303.2 922.768 0 0
-138.391 349.441 1054.72 0 0
-59.598 314.045 947.886 0 0
5.00834 303.842 917.092 0 0
-173.582 353.536 1058.35 0 0
-100.729 351.685 1052.81 0 0
-25.2015 307.915 921.78 0 0
37.7706 307.765 921.331 0 0
-135.365 354.833 1053.61 0 0
-56.6997 317.506 942.776 0 0
7.51864 308.999 917.518 0 0
-170.911 359.789 1059.73 0 0
-95.6483 349.395 1029.11 0 0
-22.6529 312.554 920.601 0 0
-215.609 380.21 1110.93 0 0
-132.79 361.422 1056.04 0 0
-53.829 320.909 937.66 0 0
10.0428 314.521 918.995 0 0
-167.897 365.328 1058.99 0 0
-90.456 345.922 1002.74 0 0
-20.0878 316.818 918.373 0 0
-214.124 389.102 1119.04 0 0
-130.12 367.808 1057.8 0 0
-51.1664 325.401 935.839 0 0
12.5085 318.367 915.608 0 0
-165.198 371.557 1060.25 0 0
-86.2613 345.58 986.119 0 0
-17.5268 320.911 915.724 0 0
-206.667 386.984 1095.72 0 0
-126.961 372.806 1055.58 0 0
-48.3776 328.949 931.397 0 0
15.0126 323.402 915.693 0 0
-162.145 376.992 1059.23 0 0
-82.5622 346.756 974.276 0 0
-15.0082 325.581 914.782 0 0
-209.103 403.455 1124.94 0 0
-124.148 378.796 1056.19 0 0
-45.6796 332.932 928.306 0 0
17.428 326.766 911.114 0 0
-159.011 382.21 1057.65 0 0
-79.0402 348.297 963.803 0 0
-12.4825 329.916 912.938 0 0
-202.411 402.414 1105.19 0 0
-121.35 384.854 1056.97 0 0
-42.9107 336.193 923.324 0 0
19.9798 332.768 913.918 0 0
-156.484 388.896 1060.11 0 0
-75.8612 351.047 956.934 0 0
-9.96431 334.144 910.857 0 0
-196.817 403.183 1090.93 0 0
-118.394 390.41 1056.37 0 0
-40.3851 341.226 923.285 0 0
22.5276 338.511 915.939 0 0
-153.301 393.957 1058.14 0 0
-72.7286 353.764 950.182 0 0
-7.46603 338.737 909.821 0 0
-199.203 420.478 1121.14 0 0
-115.543 396.313 1056.71 0 0
-37.8205 345.9 922.288 0 0
25.0321 343.53 915.968 0 0
-150.563 400.153 1059.23 0 0
-69.645 356.469 943.591 0 0
-4.97967 343.75 909.924 0 0
-190.312 413.936 1087.84 0 0
-112.625 401.981 1056.42 0 0
-35.147 349.426 918.305 0 0
27.4967 348.042 914.668 0 0
-147.518 405.533 1058.15 0 0
-66.6811 359.553 938.18 0 0
-2.48834 348.148 908.421 0 0
-189.078 423.781 1097.94 0 0
-110.092 409.074 1059.84 0 0
-32.543 353.426 915.662 0 0
30.0514 353.684 916.329 0 0
-144.491 410.935 1057.17 0 0
-63.8431 363.126 934.177 0 0
-0.00521214 351.996 905.543 0 0
-185.177 427.704 1092.63 0 0
-105.75 409.278 1045.56 0 0
-29.9694 357.589 913.508 0 0
32.4117 357.102 912.264 0 0
-141.64 416.827 1057.45 0 0
-60.9865 366.412 929.557 0 0
2.47517 357.69 907.429 0 0
-181.828 432.817 1090.46 0 0
-99.4811 401.236 1010.89 0 0
-27.479 362.67 913.728 0 0
34.9011 362.045 912.154 0 0
-138.954 423.232 1059.02 0 0
-58.1048 369.328 924.137 0 0
4.94058 361.554 904.685 0 0
-177.273 434.915 1080.86 0 0
-94.5897 397.812 988.648 0 0
-24.8684 366.003 909.595 0 0
37.5458 368.518 915.847 0 0
-136.109 429.178 1059.4 0 0
-55.4455 373.483 921.922 0 0
7.40737 366.198 903.94 0 0
-173.674 439.193 1076.86 0 0
-90.2476 396.021 971.006 0 0
-22.375 370.858 909.308 0 0
40.1305 374.284 917.707 0 0
-133.592 436.207 1062.42 0 0
-52.7331 377.146 918.569 0 0
9.90081 371.988 906.006 0 0
-170.739 445.103 1076.91 0 0
-86.2835 395.328 956.485 0 0
-19.8533 375.146 907.655 0 0
-130.392 441.013 1060.01 0 0
-50.0187 380.619 914.847 0 0
-167.703 450.742 1076.32 0 0
-83.1022 397.843 950.005 0 0
-17.3439 379.487 906.171 0 0
45.4461 386.859 923.776 0 0
-127.883 448.172 1063.24 0 0
-47.4176 384.806 912.914 0 0
-164.391 455.6 1073.9 0 0
-79.9917 400.465 943.943 0 0
-14.8671 384.443 906.177 0 0
48.1755 393.579 927.711 0 0
-124.979 453.993 1063.26 0 0
-44.892 389.534 912.299 0 0
-161.286 460.988 1072.78 0 0
-76.9715 403.32 938.577 0 0
-12.3679 388.7 904.556 0 0
51.0571 401.369 934.037 0 0
-121.853 458.976 1061.34 0 0
-42.2951 393.561 910.078 0 0
-158.027 465.888 1070.56 0 0
-74.1377 406.979 935.194 0 0
-9.90572 394.057 905.502 0 0
-119.09 465.32 1062.58 0 0
-39.6486 396.946 906.446 0 0
-155.232 472.141 1071.47 0 0
-71.2146 409.979 930.401 0 0
-7.42058 398.47 904.281 0 0
57.5049 421.413 956.348 0 0
-115.301 467.542 1054.49 0 0
-37.092 401.048 904.523 0 0
-152.156 477.536 1070.43 0 0
-68.3205 412.945 925.647 0 0
-4.95033 403.539 904.564 0 0
61.8074 438.622 983.205 0 0
-105.555 444.407 990.105 0 0
-34.6147 405.937 904.398 0 0
-149.379 483.872 1071.5 0 0
-65.5815 416.678 922.708 0 0
-189.451 499.795 1100.11 0 0
-101.084 442.103 973.121 0 0
-32.0654 409.894 902.225 0 0
-146.388 489.52 1071.05 0 0
-62.9372 420.906 920.922 0 0
-187.995 510.014 1109.25 0 0
-97.7739 444.468 966.693 0 0
-29.5865 414.649 901.838 0 0
-143.26 494.684 1069.55 0 0
-60.1064 423.73 916.143 0 0
-188.145 524.958 1128.34 0 0
-94.4244 446.409 959.507 0 0
-27.1093 419.391 901.433 0 0
-140.404 500.771 1070.06 0 0
-57.5587 428.415 915.451 0 0
-185.55 532.531 1131.32 0 0
-91.1483 448.44 952.678 0 0
-24.6448 424.311 901.417 0 0
-137.073 505.125 1066.9 0 0
-54.9209 432.353 913.199 0 0
-180.793 533.8 1121 0 0
-88.1244 451.498 948.161 0 0
-22.1747 429.119 901.165 0 0
-134.34 511.657 1068.37 0 0
-52.2912 436.231 910.872 0 0
-176.879 537.348 1115.64 0 0
-85.114 454.446 943.52 0 0
-19.6826 433.412 899.851 0 0
-132.068 520.048 1073.63 0 0
-49.6838 440.169 908.722 0 0
-173.982 543.925 1116.62 0 0
-82.0816 457.079 938.338 0 0
-17.2358 438.659 900.522 0 0
-128.622 523.835 1069.38 0 0
-47.0627 443.843 906.081 0 0
-170.087 547.315 1111.11 0 0
-79.1447 460.047 933.947 0 0
-126.27 532.09 1074.24 0 0
-44.5519 448.454 905.388 0 0
-166.759 552.425 1109.18 0 0
-76.3026 463.396 930.421 0 0
-12.2739 447.088 897.677 0 0
-122.864 535.913 1070.15 0 0
-42.0499 453.11 904.804 0 0
-163.913 559.124 1110.44 0 0
-73.6657 467.888 929.24 0 0
-9.80377 451.243 896.183 0 0
-111.013 501.447 990.512 0 0
-39.5845 458.147 904.981 0 0
-159.94 561.901 1103.97 0 0
-70.6162 469.579 922.583 0 0
-7.36728 456.958 897.786 0 0
-105.531 493.879 965.142 0 0
-36.9857 461.533 901.93 0 0
-158.389 573.244 1114.28 0 0
-68.1169 474.78 922.888 0 0
-4.90824 461.396 896.872 0 0
-101.671 493.225 953.674 0 0
-34.4422 465.408 899.89 0 0
-154.799 577.307 1110.38 0 0
-65.3664 478.159 919.683 0 0
-98.281 494.499 946.136 0 0
-31.9385 469.683 898.655 0 0
-151.049 580.63 1105.15 0 0
-62.9023 483.569 920.411 0 0
-0.00517976 472.802 899.917 0 0
-95.714 499.771 946.326 0 0
-29.4974 474.842 899.121 0 0
-147.333 583.916 1099.96 0 0
-60.0734 486.069 915.641 0 0
2.45947 478.654 901.672 0 0
-92.246 500.167 937.371 0 0
-26.9689 478.5 896.765 0 0
-144.996 592.664 1105.06 0 0
-57.4725 490.238 914.08 0 0
4.95854 486.962 907.973 0 0
-89.5482 504.527 935.954 0 0
-143.595 605.539 1117.67 0 0
-54.8903 494.481 912.69 0 0
-86.7691 508.351 933.579 0 0
683.562 712.941 1309.31 0 0
-140.059 609.556 1113.85 0 0
-52.2848 498.416 910.761 0 0
-84.0764 512.596 932.018 0 0
-49.5962 501.382 907.12 0 0
-81.4531 517.211 931.153 0 0
-46.8571 503.551 902.122 0 0
-78.9746 522.743 931.941 0 0
-44.3869 508.434 902.035 0 0
667.784 756.611 1342.34 0 0
-75.8653 523.957 925.089 0 0
-12.3299 510.754 901.778 0 0
-113.416 562.207 987.855 0 0
-41.8316 512.267 900.105 0 0
-73.3512 529.119 925.272 0 0
-9.85183 514.996 900.575 0 0
-107.374 550.475 958.038 0 0
-39.3449 516.842 899.504 0 0
-70.6226 532.673 922.667 0 0
-103.221 547.576 944.011 0 0
-36.7752 520.19 896.798 0 0
-67.8148 535.461 918.794 0 0
-100.223 550.441 940.09 0 0
-34.5583 528.679 902.923 0 0
-65.5768 542.747 922.642 0 0
-97.2764 553.438 936.465 0 0
-62.8861 546.326 920.174 0 0
-94.3624 556.469 932.963 0 0
-60.1656 549.482 917.045 0 0
-91.75 561.188 932.33 0 0
-57.2802 550.853 911.022 0 0
5.00325 553.959 916.16 0 0
-88.5029 561.85 925.028 0 0
