ply
format ascii 1.0
element vertex 1188
property float x
property float y
property float z
property float u
property float v
end_header
398.429 -247.965 1166.11 1358.43 352.035
457.089 -253.992 1194.46 1417.09 346.008
138.424 -221.468 1055.07 1098.42 378.532
179.672 -219.017 1043.39 1139.67 380.983
222.371 -218.936 1043.01 1182.37 381.064
267.951 -221.261 1054.08 1227.95 378.739
319.212 -226.979 1081.32 1279.21 373.021
390.992 -244.114 1162.95 1350.99 355.886
451.672 -251.347 1197.41 1411.67 348.653
132.215 -217.858 1051.56 1092.22 382.142
173.327 -215.368 1039.54 1133.33 384.632
215.768 -215.187 1038.67 1175.77 384.813
262.095 -218.302 1053.71 1222.1 381.698
311.549 -222.771 1075.28 1271.55 377.229
385.324 -241.367 1165.04 1345.32 358.633
443.962 -247.425 1194.28 1403.96 352.575
500.06 -251.004 1211.55 1460.06 348.996
126.729 -215.43 1053.75 1086.73 384.57
167.385 -212.198 1037.94 1127.38 387.802
210.112 -212.37 1038.78 1170.11 387.63
255.001 -214.301 1048.23 1215 385.699
304.501 -218.991 1071.17 1264.5 381.009
365.871 -229.959 1124.81 1325.87 370.041
436.963 -243.898 1192.99 1396.96 356.102
490.285 -246.111 1203.82 1450.29 353.889
120.606 -211.913 1050.59 1080.61 388.087
161.48 -209.063 1036.46 1121.48 390.937
203.737 -208.817 1035.24 1163.74 391.183
248.495 -210.778 1044.96 1208.5 389.222
297.597 -215.305 1067.4 1257.6 384.695
356.061 -224.576 1113.37 1316.06 375.424
431.463 -241.209 1195.83 1391.46 358.791
484.714 -243.327 1206.33 1444.71 356.673
115.095 -209.464 1052.71 1075.09 390.536
155.474 -205.779 1034.2 1115.47 394.221
198.231 -206.148 1036.05 1158.23 393.852
242.048 -207.293 1041.8 1202.05 392.707
289.828 -210.979 1060.33 1249.83 389.021
347.786 -220.147 1106.41 1307.79 379.853
424.603 -237.759 1194.92 1384.6 362.241
478.058 -239.999 1206.18 1438.06 360.001
109.137 -206.203 1050.76 1069.14 393.797
149.371 -202.345 1031.1 1109.37 397.655
190.955 -201.613 1027.37 1150.95 398.387
235.992 -204.133 1040.21 1195.99 395.867
282.721 -207.121 1055.44 1242.72 392.879
338.521 -215.079 1095.99 1298.52 384.921
417.535 -234.193 1193.39 1377.54 365.807
471.222 -236.581 1205.56 1431.22 363.419
103.236 -203.023 1049.17 1063.24 396.977
143.873 -199.718 1032.09 1103.87 400.282
185.168 -198.622 1026.42 1145.17 401.378
229.612 -200.684 1037.08 1189.61 399.316
275.89 -203.454 1051.4 1235.89 396.546
328.79 -209.698 1083.67 1288.79 390.302
409.232 -229.931 1188.22 1369.23 370.069
460.257 -231.089 1194.21 1420.26 368.911
97.5416 -200.24 1049.61 1057.54 399.76
137.532 -195.902 1026.87 1097.53 404.098
178.889 -195.088 1022.61 1138.89 404.912
223.28 -197.264 1034.01 1183.28 402.736
268.992 -199.726 1046.92 1228.99 400.274
322.377 -206.424 1082.03 1282.38 393.576
403.16 -226.922 1189.47 1363.16 373.078
453.912 -227.917 1194.69 1413.91 372.083
510.385 -231.311 1212.48 1470.38 368.689
91.8526 -197.476 1050.18 1051.85 402.523
132.167 -193.46 1028.81 1092.17 406.54
172.848 -191.794 1019.95 1132.85 408.206
216.84 -193.734 1030.28 1176.84 406.266
263.127 -196.758 1046.36 1223.13 403.242
314.125 -201.963 1074.04 1274.12 398.037
396.332 -223.487 1188.5 1356.33 376.513
449.886 -225.91 1201.38 1409.89 374.091
501.931 -227.171 1208.09 1461.93 372.829
86.277 -194.98 1052.19 1046.28 405.02
125.92 -189.71 1023.75 1085.92 410.29
166.577 -188.219 1015.71 1126.58 411.781
210.891 -190.631 1028.73 1170.89 409.369
255.609 -192.544 1039.05 1215.61 407.456
306.666 -198.003 1068.51 1266.67 401.997
385.054 -217.537 1173.92 1345.05 382.463
444.074 -223.005 1203.43 1404.07 376.995
494.059 -223.296 1205 1454.06 376.704
80.6396 -192.378 1053.69 1040.64 407.622
120.432 -187.08 1024.68 1080.43 412.92
160.538 -184.883 1012.64 1120.54 415.117
204.691 -187.292 1025.84 1164.69 412.708
249.524 -189.397 1037.37 1209.52 410.603
299.886 -194.473 1065.17 1259.89 405.527
362.927 -205.437 1125.22 1322.93 394.563
435.411 -218.669 1197.7 1395.41 381.331
487.463 -219.998 1204.97 1447.46 380.002
75.0249 -189.866 1055.74 1035.02 410.134
114.537 -183.808 1022.06 1074.54 416.192
154.646 -181.697 1010.32 1114.65 418.303
198.073 -183.553 1020.64 1158.07 416.447
243.561 -186.337 1036.12 1203.56 413.663
291.939 -190.178 1057.48 1251.94 409.822
352.087 -199.701 1110.43 1312.09 400.299
428.765 -215.346 1197.42 1388.77 384.654
479.978 -216.299 1202.72 1439.98 383.701
69.4953 -187.634 1059.43 1029.5 412.366
109.309 -181.613 1025.44 1069.31 418.387
149.395 -179.262 1012.16 1109.39 420.738
192.615 -180.877 1021.28 1152.61 419.123
237.54 -183.231 1034.57 1197.54 416.769
284.395 -186.134 1050.96 1244.4 413.866
344.227 -195.649 1104.69 1304.23 404.351
421.766 -211.845 1196.14 1381.77 388.155
471.637 -212.217 1198.24 1431.64 387.783
63.8477 -185.156 1061.83 1023.85 414.844
103.2 -177.941 1020.46 1063.2 422.059
143.502 -176.054 1009.63 1103.5 423.946
186.024 -177.126 1015.78 1146.02 422.874
230.407 -179.253 1027.98 1190.41 420.747
277.457 -182.477 1046.47 1237.46 417.523
335.1 -190.871 1094.6 1295.1 409.129
414.166 -208.043 1193.08 1374.17 391.957
465.225 -209.004 1198.6 1425.22 390.996
58.4204 -183.44 1068.74 1018.42 416.56
97.7007 -175.295 1021.29 1057.7 424.705
137.824 -173.096 1008.48 1097.82 426.904
180.25 -174.136 1014.53 1140.25 425.864
223.834 -175.696 1023.62 1183.83 424.304
271.211 -179.269 1044.44 1231.21 420.731
323.849 -184.872 1077.09 1283.85 415.128
406.323 -204.118 1189.22 1366.32 395.882
456.917 -204.941 1194.01 1416.92 395.059
511.187 -207.093 1206.55 1471.19 392.907
52.3351 -179.685 1063.81 1012.34 420.315
91.9821 -172.249 1019.79 1051.98 427.751
131.935 -169.855 1005.61 1091.93 430.145
173.801 -170.477 1009.29 1133.8 429.523
217.914 -172.641 1022.1 1177.91 427.359
263.848 -175.316 1037.94 1223.85 424.684
316.205 -180.923 1071.14 1276.2 419.077
397.729 -199.816 1182.99 1357.73 400.184
452.168 -202.473 1198.72 1412.17 397.527
504.513 -203.764 1206.37 1464.51 396.236
47.3678 -180.001 1083.21 1007.37 419.999
86.5184 -169.68 1021.1 1046.52 430.32
126.167 -166.749 1003.46 1086.17 433.251
168.037 -167.473 1007.82 1128.04 432.527
212.023 -169.604 1020.64 1172.02 430.396
257.769 -172.208 1036.31 1217.77 427.792
310.848 -178.281 1072.86 1270.85 421.719
390.471 -196.185 1180.6 1350.47 403.815
444.956 -198.902 1196.95 1404.96 401.098
494.172 -198.959 1197.29 1454.17 401.041
42.0916 -179.798 1100.08 1002.09 420.202
80.793 -166.594 1019.29 1040.79 433.406
120.64 -163.95 1003.12 1080.64 436.05
162.018 -164.202 1004.66 1122.02 435.798
205.121 -165.746 1014.1 1165.12 434.254
250.91 -168.574 1031.41 1210.91 431.426
303.528 -174.512 1067.74 1263.53 425.488
376.384 -189.123 1157.13 1336.38 410.877
435.866 -194.494 1190 1395.87 405.506
485.895 -194.991 1193.04 1445.89 405.009
36.3158 -177.958 1107.34 996.316 422.042
75.3603 -164.112 1021.19 1035.36 435.888
115.285 -161.389 1004.24 1075.29 438.611
156.087 -161.003 1001.84 1116.09 438.997
199.324 -162.767 1012.82 1159.32 437.233
244.222 -165.045 1026.99 1204.22 434.955
294.868 -169.967 1057.62 1254.87 430.033
355.716 -178.752 1112.29 1315.72 421.248
428.669 -190.934 1188.08 1388.67 409.066
478.536 -191.395 1190.96 1438.54 408.605
69.7466 -161.249 1020.73 1029.75 438.751
109.527 -158.256 1001.79 1069.53 441.744
149.901 -157.52 997.129 1109.9 442.48
192.807 -159.19 1007.7 1152.81 440.81
237.104 -161.216 1020.52 1197.1 438.784
286.963 -165.848 1049.85 1246.96 434.152
346.218 -173.995 1101.42 1306.22 426.005
420.777 -187.065 1184.15 1380.78 412.935
470.558 -187.555 1187.25 1430.56 412.445
64.1786 -158.489 1020.93 1024.18 441.511
104.104 -155.598 1002.31 1064.1 444.402
144.451 -154.796 997.138 1104.45 445.204
186.934 -156.131 1005.74 1146.93 443.869
231.604 -158.48 1020.87 1191.6 441.52
279.841 -162.178 1044.69 1239.84 437.822
339.595 -170.682 1099.47 1299.6 429.318
412.814 -183.167 1179.89 1372.81 416.833
464.483 -184.474 1188.32 1424.48 415.526
58.5934 -155.688 1020.86 1018.59 444.312
98.317 -152.382 999.179 1058.32 447.618
138.175 -151.167 991.215 1098.17 448.833
180.502 -152.592 1000.56 1140.5 447.408
224.926 -154.934 1015.92 1184.93 445.066
272.174 -158.186 1037.24 1232.17 441.814
330.674 -166.214 1089.88 1290.67 433.786
405.08 -179.374 1176.17 1365.08 420.626
456.814 -180.762 1185.27 1416.81 419.238
53.1031 -153.159 1022.6 1013.1 446.841
93.1335 -150.1 1002.18 1053.13 449.9
132.535 -148.211 989.569 1092.54 451.789
174.85 -149.702 999.521 1134.85 450.298
219.692 -152.379 1017.4 1179.69 447.621
265.549 -154.794 1033.52 1225.55 445.206
320.163 -160.946 1074.6 1280.16 439.054
397.806 -175.786 1173.68 1357.81 424.214
449.252 -177.096 1182.43 1409.25 422.904
47.3912 -149.979 1019.99 1007.39 450.021
87.3361 -146.825 998.537 1047.34 453.175
126.952 -145.308 988.221 1086.95 454.692
169.093 -146.716 997.793 1129.09 453.284
212.429 -148.41 1009.32 1172.43 451.59
258.344 -151.059 1027.34 1218.34 448.941
312.31 -157.014 1067.83 1272.31 442.986
389.293 -171.653 1167.39 1349.29 428.347
442.911 -173.912 1182.75 1402.91 426.088
42.0121 -147.884 1024.79 1002.01 452.116
81.8471 -144.042 998.169 1041.85 455.958
121.54 -142.595 988.139 1081.54 457.405
163.344 -143.729 995.996 1123.34 456.271
206.452 -145.328 1007.08 1166.45 454.672
252.628 -148.193 1026.93 1212.63 451.807
306.346 -154.031 1067.39 1266.35 445.969
381.388 -167.792 1162.75 1341.39 432.208
436.821 -170.826 1183.77 1396.82 429.174
488.952 -172.091 1192.54 1448.95 427.909
36.4302 -145.165 1025.37 996.43 454.835
76.1385 -140.848 994.881 1036.14 459.152
115.986 -139.712 986.851 1075.99 460.288
157.419 -140.578 992.97 1117.42 459.422
200.092 -141.969 1002.79 1160.09 458.031
245.217 -144.328 1019.46 1205.22 455.672
298.01 -149.857 1058.51 1258.01 450.143
367.638 -161.368 1139.82 1327.64 438.632
429.063 -167.09 1180.24 1389.06 432.91
481.725 -168.584 1190.79 1441.72 431.416
30.9607 -142.99 1029.89 990.961 457.01
70.8558 -138.434 997.077 1030.86 461.566
110.509 -136.913 986.12 1070.51 463.087
151.774 -137.667 991.556 1111.77 462.333
194.201 -138.935 1000.68 1154.2 461.065
239.161 -141.257 1017.41 1199.16 458.743
289.75 -145.719 1049.55 1249.75 454.281
349.159 -152.89 1101.2 1309.16 447.11
423.219 -164.099 1181.93 1383.22 435.901
475.068 -165.278 1190.42 1435.07 434.722
25.3343 -140.197 1030.06 985.334 459.803
65.2591 -135.406 994.855 1025.26 464.594
104.825 -133.842 983.362 1064.82 466.158
145.846 -134.49 988.123 1105.85 465.51
187.981 -135.659 996.712 1147.98 464.341
232.489 -137.817 1012.57 1192.49 462.183
281.334 -141.503 1039.65 1241.33 458.497
340.584 -148.764 1093 1300.58 451.236
415.87 -160.526 1179.42 1375.87 439.474
466.001 -161.139 1183.92 1426 438.861
19.8282 -138.254 1036.59 979.828 461.746
59.9229 -132.914 996.56 1019.92 467.086
99.7674 -131.574 986.514 1059.77 468.426
140.214 -131.572 986.501 1100.21 468.427
182.72 -133.071 997.739 1142.72 466.929
226.69 -134.893 1011.39 1186.69 465.107
274.187 -137.925 1034.13 1234.19 462.075
333.75 -145.402 1090.19 1293.75 454.598
408.664 -157.01 1177.23 1368.66 442.99
458.843 -157.667 1182.15 1418.84 442.333
14.214 -135.924 1040.45 974.214 464.076
54.4244 -130.07 995.638 1014.42 469.93
94.0617 -128.451 983.247 1054.06 471.549
134.242 -128.323 982.267 1094.24 471.677
176.906 -130.08 995.718 1136.91 469.92
220.772 -131.896 1009.62 1180.77 468.104
267.619 -134.639 1030.61 1227.62 465.361
325.715 -141.521 1083.29 1285.72 458.479
401.064 -153.347 1173.82 1361.06 446.653
451.103 -154 1178.82 1411.1 446
8.5453 -133.381 1042.8 968.545 466.619
49.1501 -127.787 999.067 1009.15 472.213
88.501 -125.5 981.192 1048.5 474.5
128.595 -125.368 980.154 1088.6 474.632
171.158 -127.132 993.946 1131.16 472.868
214.976 -128.97 1008.32 1174.98 471.03
259.851 -130.748 1022.22 1219.85 469.252
315.138 -136.543 1067.52 1275.14 463.457
395.23 -150.361 1175.56 1355.23 449.639
444.879 -150.853 1179.4 1404.88 449.147
2.90591 -133.352 1065.34 962.906 466.648
43.6236 -124.87 997.585 1003.62 475.13
82.9907 -122.602 979.466 1042.99 477.398
122.552 -122.007 974.709 1082.55 477.993
164.923 -123.813 989.139 1124.92 476.187
208.385 -125.564 1003.13 1168.38 474.436
252.441 -127.037 1014.89 1212.44 472.963
307.332 -132.773 1060.72 1267.33 467.227
386.981 -146.458 1170.05 1346.98 453.542
437.781 -147.41 1177.65 1397.78 452.59
-2.91511 -130.303 1064.22 957.085 469.697
38.231 -122.339 999.182 998.231 477.661
77.8609 -120.272 982.301 1037.86 479.728
117.492 -119.616 976.945 1077.49 480.384
159.321 -120.962 987.933 1119.32 479.038
202.8 -122.761 1002.63 1162.8 477.239
247 -124.317 1015.33 1207 475.683
301.778 -129.98 1061.59 1261.78 470.02
373.879 -140.736 1149.43 1333.88 459.264
432.728 -144.654 1181.43 1392.73 455.346
-8.88636 -129.63 1082.9 951.114 470.37
32.8163 -119.782 1000.64 992.816 480.218
72.3773 -117.403 980.764 1032.38 482.597
111.497 -116.263 971.238 1071.5 483.737
153.198 -117.706 983.297 1113.2 482.294
196.469 -119.504 998.311 1156.47 480.496
240.401 -121.014 1010.93 1200.4 478.986
293.305 -125.932 1052.01 1253.3 474.068
357.308 -133.743 1117.27 1317.31 466.257
425.199 -141.069 1178.46 1385.2 458.931
-15.4336 -132.035 1128.77 944.566 467.965
27.4432 -117.463 1004.19 987.443 482.537
67.0922 -114.853 981.884 1027.09 485.147
106.141 -113.559 970.818 1066.14 486.441
147.885 -115.067 983.716 1107.88 484.933
190.464 -116.44 995.45 1150.46 483.56
234.702 -118.164 1010.18 1194.7 481.836
284.882 -121.913 1042.23 1244.88 478.087
344.401 -128.159 1095.64 1304.4 471.841
419.374 -138.051 1180.2 1379.37 461.949
21.9199 -114.543 1002.66 981.92 485.457
61.6652 -112.062 980.943 1021.67 487.938
100.313 -110.332 965.804 1060.31 489.668
141.689 -111.734 978.072 1101.69 488.266
184.509 -113.404 992.689 1144.51 486.596
228.093 -114.855 1005.39 1188.09 485.145
276.866 -118.075 1033.58 1236.87 481.925
336.188 -124.342 1088.44 1296.19 475.658
411.964 -134.512 1177.47 1371.96 465.488
16.4876 -112.136 1005.66 976.488 487.864
56.4244 -109.617 983.067 1016.42 490.383
94.9351 -107.581 964.809 1054.94 492.419
136.344 -109.062 978.084 1096.34 490.938
179.29 -110.819 993.842 1139.29 489.181
222.197 -111.906 1003.59 1182.2 488.094
270.061 -114.759 1029.18 1230.06 485.241
330.099 -121.316 1087.98 1290.1 478.684
406.363 -131.564 1179.89 1366.36 468.436
459.301 -132.884 1191.73 1419.3 467.116
10.9747 -109.237 1004.28 970.975 490.763
50.9952 -106.815 982.009 1011 493.185
89.5199 -104.78 963.295 1049.52 495.22
130.346 -105.859 973.221 1090.35 494.141
172.424 -107.211 985.651 1132.42 492.789
215.949 -108.779 1000.06 1175.95 491.221
262.638 -111.186 1022.19 1222.64 488.814
322.76 -117.834 1083.31 1282.76 482.166
398.319 -127.828 1175.19 1358.32 472.172
451.216 -129.177 1187.59 1411.22 470.823
5.49973 -106.788 1007.07 965.5 493.212
45.6688 -104.227 982.916 1005.67 495.773
84.4855 -102.428 965.946 1044.49 497.572
124.791 -103.005 971.394 1084.79 496.995
167.135 -104.579 986.237 1127.13 495.421
210.892 -106.252 1002.01 1170.89 493.748
254.778 -107.434 1013.16 1214.78 492.566
312.041 -113.134 1066.91 1272.04 486.866
383.493 -121.944 1150 1343.49 478.056
444.701 -125.924 1187.53 1404.7 474.076
-0.00579258 -103.965 1006.39 959.994 496.035
40.2777 -101.496 982.486 1000.28 498.504
78.9007 -99.404 962.237 1038.9 500.596
119.057 -99.9949 967.957 1079.06 500.005
161.027 -101.432 981.872 1121.03 498.568
204.662 -103.134 998.343 1164.66 496.866
248.761 -104.463 1011.21 1208.76 495.537
303.374 -109.197 1057.04 1263.37 490.803
373.781 -117.722 1139.55 1333.78 482.278
437.354 -122.439 1185.22 1397.35 477.561
-5.53369 -101.694 1011.16 954.466 498.306
34.952 -98.9386 983.762 994.952 501.061
74.0423 -97.302 967.489 1034.04 502.698
114.01 -97.5577 970.032 1074.01 502.442
155.49 -98.6412 980.805 1115.49 501.359
198.879 -100.241 996.713 1158.88 499.759
243.633 -101.867 1012.87 1203.63 498.133
297.667 -106.333 1057.29 1257.67 493.667
362.927 -113.165 1125.22 1322.93 486.835
431.731 -119.436 1187.57 1391.73 480.564
-11.1193 -99.4466 1016.44 948.881 500.553
29.527 -96.0971 982.204 989.527 503.903
68.5621 -94.3945 964.801 1028.56 505.606
107.532 -93.8808 959.551 1067.53 506.119
149.462 -95.5344 976.453 1109.46 504.466
192.807 -97.2025 993.502 1152.81 502.797
237.009 -98.6456 1008.25 1197.01 501.354
289.362 -102.549 1048.15 1249.36 497.451
350.013 -108.003 1103.89 1310.01 491.997
424.881 -116.092 1186.57 1384.88 483.908
-16.9108 -98.029 1030.75 943.089 501.971
24.2542 -93.7867 986.14 984.254 506.213
63.4109 -91.9358 966.679 1023.41 508.064
102.07 -91.0651 957.523 1062.07 508.935
143.973 -92.7679 975.428 1103.97 507.232
187.37 -94.4838 993.471 1147.37 505.516
231.417 -95.8565 1007.9 1191.42 504.144
282.024 -99.1186 1042.2 1242.02 500.881
340.629 -103.963 1093.14 1300.63 496.037
420.665 -113.461 1193.02 1380.67 486.539
-22.9922 -97.097 1051.16 937.008 502.903
18.8144 -90.8558 983.593 978.814 509.144
58.0084 -89.1125 964.72 1018.01 510.887
96.9505 -88.5528 958.66 1056.95 511.447
137.923 -89.6352 970.379 1097.92 510.365
180.678 -91.1325 986.588 1140.68 508.868
224.578 -92.5539 1001.98 1184.58 507.446
273.148 -95.1624 1030.22 1233.15 504.838
333.213 -100.541 1088.44 1293.21 499.459
409.156 -108.874 1178.65 1369.16 491.126
463.056 -110.2 1193.01 1423.06 489.8
-29.4104 -96.4258 1075.72 930.59 503.574
13.5087 -88.6363 988.826 973.509 511.364
52.9692 -86.8607 969.017 1012.97 513.139
91.626 -85.854 957.787 1051.63 514.146
132.386 -86.8311 968.687 1092.39 513.169
175.375 -88.4813 987.096 1135.37 511.519
218.815 -89.6981 1000.67 1178.82 510.302
266.916 -92.1393 1027.9 1226.92 507.861
325.475 -97.0325 1082.49 1285.48 502.968
392.09 -102.865 1147.56 1352.09 497.135
455.833 -106.775 1191.18 1415.83 493.225
-36.3143 -96.1954 1106.91 923.686 503.805
8.1057 -85.9623 989.158 968.106 514.038
47.6623 -84.1952 968.823 1007.66 515.805
86.0452 -82.9038 953.964 1046.05 517.096
126.69 -83.918 965.635 1086.69 516.082
168.962 -85.2703 981.195 1128.96 514.73
212.141 -86.472 995.023 1172.14 513.528
259.069 -88.568 1019.14 1219.07 511.432
317.119 -93.3558 1074.23 1277.12 506.644
384.332 -99.3443 1143.14 1344.33 500.656
447.81 -103.171 1187.17 1407.81 496.829
2.70499 -83.4711 991.684 962.705 516.529
42.4429 -81.6953 970.586 1002.44 518.305
81.1786 -80.6426 958.079 1041.18 519.357
121.205 -81.1407 963.998 1081.21 518.859
163.256 -82.4155 979.143 1123.26 517.584
207.204 -83.9559 997.443 1167.2 516.044
251.877 -85.2339 1012.63 1211.88 514.766
309.855 -90.0152 1069.43 1269.85 509.985
374.13 -95.2138 1131.19 1334.13 504.786
-2.71749 -80.7925 992.078 957.283 519.208
37.1067 -78.9781 969.798 997.107 521.022
75.7579 -77.8356 955.77 1035.76 522.164
115.372 -78.1242 959.313 1075.37 521.876
157.336 -79.4525 975.624 1117.34 520.547
200.971 -80.9152 993.584 1160.97 519.085
246.053 -82.3693 1011.44 1206.05 517.631
300.174 -85.9935 1055.94 1260.17 514.006
362.61 -90.7856 1114.79 1322.61 509.214
-8.16194 -78.2812 994.625 951.838 521.719
31.9404 -76.6523 973.929 991.94 523.348
70.5638 -75.2562 956.189 1030.56 524.744
110.253 -75.588 960.406 1070.25 524.412
151.749 -76.6577 973.997 1111.75 523.342
195.314 -78.1096 992.445 1155.31 521.89
241.136 -79.8074 1014.02 1201.14 520.193
293.874 -82.9582 1054.05 1253.87 517.042
356.11 -87.6387 1113.52 1316.11 512.361
-13.5757 -75.4305 992.889 946.424 524.569
26.5367 -73.7695 971.024 986.537 526.231
65.0777 -72.3548 952.403 1025.08 527.645
104.351 -72.5097 954.442 1064.35 527.49
145.775 -73.6675 969.682 1105.78 526.332
189.64 -75.2981 991.146 1149.64 524.702
233.799 -76.4491 1006.3 1193.8 523.551
286.55 -79.6431 1048.34 1246.55 520.357
346.582 -83.7634 1102.57 1306.58 516.237
429.408 -91.8063 1208.44 1389.41 508.194
-19.1397 -73.237 999.994 940.86 526.763
21.2391 -71.1515 971.519 981.239 528.849
59.8613 -69.7401 952.247 1019.86 530.26
98.7026 -69.5975 950.3 1058.7 530.402
140.438 -70.9985 969.43 1100.44 529.002
183.987 -72.4964 989.883 1143.99 527.504
228.198 -73.6665 1005.86 1188.2 526.334
279.655 -76.4593 1043.99 1239.65 523.541
338.448 -80.2501 1095.75 1298.45 519.75
424.001 -88.7542 1211.87 1384 511.246
-24.6789 -70.7111 1002.94 935.321 529.289
15.8828 -68.3019 968.768 975.883 531.698
54.6052 -67.0754 951.371 1014.61 532.925
92.9064 -66.5692 944.192 1052.91 533.431
134.191 -67.8698 962.638 1094.19 532.13
177.731 -69.4607 985.203 1137.73 530.539
221.964 -70.6828 1002.54 1181.96 529.317
271.04 -72.8245 1032.91 1231.04 527.176
331.257 -76.976 1091.8 1291.26 523.024
403.481 -82.5972 1171.53 1363.48 517.403
-30.3456 -68.3837 1009.05 929.654 531.616
10.6416 -65.9944 973.793 970.642 534.006
49.4333 -64.5129 951.932 1009.43 535.487
87.7662 -64.0041 944.424 1047.77 535.996
128.929 -65.2388 962.643 1088.93 534.761
172.102 -66.6734 983.811 1132.1 533.327
216.129 -67.8314 1000.9 1176.13 532.169
264.133 -69.6687 1028.01 1224.13 530.331
321.691 -73.1735 1079.73 1281.69 526.826
391.382 -78.2563 1154.73 1351.38 521.744
-35.8621 -65.6258 1009.05 924.138 534.374
5.31673 -63.3177 973.563 965.317 536.682
44.2657 -61.9619 952.717 1004.27 538.038
82.5684 -61.3967 944.026 1042.57 538.603
123.094 -62.3177 958.187 1083.09 537.682
165.621 -63.5612 977.307 1125.62 536.439
209.288 -64.6722 994.389 1169.29 535.328
256.35 -66.2992 1019.41 1216.35 533.701
313.591 -69.7334 1072.21 1273.59 530.267
373.455 -72.8348 1119.9 1333.46 527.165
-41.5582 -63.1408 1013.44 918.442 536.859
-0.00560698 -60.6926 974.141 959.994 539.307
39.0764 -59.3867 953.181 999.076 540.613
77.4524 -58.8504 944.574 1037.45 541.15
117.689 -59.6142 956.834 1077.69 540.386
160.038 -60.7983 975.838 1120.04 539.202
203.704 -61.9094 993.673 1163.7 538.091
250.479 -63.4373 1018.2 1210.48 536.563
307.155 -66.678 1070.21 1267.16 533.322
363.862 -69.1144 1109.32 1323.86 530.886
-47.1301 -60.4111 1014.12 912.87 539.589
-5.32352 -57.9473 972.756 954.676 542.053
33.7747 -56.6291 950.628 993.775 543.371
72.2726 -56.256 944.365 1032.27 543.744
111.645 -56.5864 949.911 1071.64 543.414
154 -57.8666 971.402 1114 542.133
197.42 -58.9389 989.402 1157.42 541.061
242.533 -60.0648 1008.3 1202.53 539.935
297.885 -63.0291 1058.06 1257.89 536.971
357.417 -66.0118 1108.13 1317.42 533.988
-53.3989 -58.4321 1028.07 906.601 541.568
-10.6889 -55.5349 977.094 949.311 544.465
28.5919 -54.0574 951.099 988.592 545.943
67.3188 -53.8418 947.306 1027.32 546.158
106.766 -54.1491 952.713 1066.77 545.851
148.058 -54.9769 967.277 1108.06 545.023
192.185 -56.2854 990.298 1152.19 543.715
237.104 -57.3288 1008.66 1197.1 542.671
290.668 -59.842 1052.87 1250.67 540.158
-60.8309 -57.3294 1059.63 899.169 542.671
-16.0022 -52.7707 975.368 943.998 547.229
23.3973 -51.4683 951.296 983.397 548.532
62.0426 -51.172 945.82 1022.04 548.828
101.315 -51.4217 950.436 1061.31 548.578
141.91 -52.0178 961.452 1101.91 547.982
186.646 -53.5424 989.632 1146.65 546.458
231.754 -54.6103 1009.37 1191.75 545.39
283.635 -56.7087 1048.15 1243.63 543.291
-21.3802 -50.2122 977.463 938.62 549.788
18.2537 -49.0213 954.281 978.254 550.979
56.8243 -48.5461 945.029 1016.82 551.454
95.5007 -48.5099 944.325 1055.5 551.49
136.363 -49.2846 959.406 1096.36 550.715
181.201 -50.8276 989.442 1141.2 549.172
226.245 -51.8535 1009.41 1186.25 548.147
276.691 -53.6084 1043.58 1236.69 546.392
-26.7461 -47.5798 978.273 933.254 552.42
13.0422 -46.4319 954.672 973.042 553.568
51.5424 -45.8601 942.915 1011.54 554.14
90.2973 -45.9078 943.897 1050.3 554.092
130.254 -46.3545 953.081 1090.25 553.646
174.704 -47.8253 983.321 1134.7 552.175
219.725 -48.8715 1004.83 1179.73 551.128
267.741 -50.1482 1031.08 1227.74 549.852
-32.1101 -44.928 978.759 927.89 555.072
7.81192 -43.7597 953.308 967.812 556.24
46.3959 -43.2904 943.083 1006.4 556.71
85.6235 -43.5753 949.289 1045.62 556.425
125.504 -43.9105 956.592 1085.5 556.089
168.668 -44.9615 979.487 1128.67 555.039
213.878 -46.0485 1003.17 1173.88 553.951
262.549 -47.41 1032.83 1222.55 552.59
318.845 -49.579 1080.08 1278.85 550.421
-37.5311 -42.3319 980.595 922.469 557.668
2.60182 -41.1778 953.861 962.602 558.822
41.2011 -40.6739 942.188 1001.2 559.326
80.4505 -40.9889 949.485 1040.45 559.011
119.55 -41.0469 950.828 1079.55 558.953
161.98 -41.9387 971.487 1121.98 558.061
206.499 -42.9128 994.05 1166.5 557.087
255.9 -44.4129 1028.8 1215.9 555.587
309.567 -46.1241 1068.44 1269.57 553.876
-43.1032 -39.8469 985.426 916.897 560.153
-2.61924 -38.6656 956.212 957.381 561.334
36.023 -38.0697 941.476 996.023 561.93
75.5907 -38.5624 953.66 1035.59 561.438
114.454 -38.4822 951.678 1074.45 561.518
155.937 -39.0999 966.952 1115.94 560.9
200.866 -40.1558 993.067 1160.87 559.844
249.737 -41.5112 1026.59 1209.74 558.489
303.727 -43.2037 1068.44 1263.73 556.796
-48.2957 -37.0042 981.471 911.704 562.996
-7.84923 -36.0633 956.517 952.151 563.937
30.956 -35.5881 943.913 990.956 564.412
69.84 -35.6812 946.381 1029.84 564.319
108.864 -35.7538 948.307 1068.86 564.246
149.869 -36.2675 961.932 1109.87 563.733
194.861 -37.3311 990.142 1154.86 562.669
241.093 -38.2244 1013.83 1201.09 561.776
296.22 -40.0579 1062.47 1256.22 559.942
-53.865 -34.4517 985.196 906.135 565.548
-13.1416 -33.6104 961.138 946.858 566.39
25.8665 -33.0985 946.5 985.867 566.901
64.5085 -33.0136 944.072 1024.51 566.986
103.644 -33.1501 947.975 1063.64 566.85
144.48 -33.608 961.07 1104.48 566.392
189.708 -34.6721 991.501 1149.71 565.328
236.272 -35.5617 1016.94 1196.27 564.438
288 -36.8451 1053.64 1248 563.155
-59.4768 -31.8798 988.952 900.523 568.12
-18.406 -31.0001 961.665 941.594 569
20.6495 -30.4485 944.551 980.649 569.552
58.8954 -30.2013 936.883 1018.9 569.799
98.0694 -30.4372 944.203 1058.07 569.563
138.675 -30.8583 957.264 1098.68 569.142
183.668 -31.8544 988.166 1143.67 568.146
229.98 -32.6779 1013.71 1189.98 567.322
280.506 -33.7564 1047.17 1240.51 566.244
-65.2514 -29.3421 994.563 894.749 570.658
-23.6214 -28.3212 959.962 936.379 571.679
15.4857 -27.8664 944.546 975.486 572.134
53.7026 -27.6038 935.645 1013.7 572.396
92.9829 -27.8789 944.969 1052.98 572.121
133.226 -28.1959 955.713 1093.23 571.804
177.618 -29.0474 984.575 1137.62 570.953
224.135 -29.8666 1012.34 1184.14 570.133
273.683 -30.7706 1042.98 1233.68 569.229
-70.9528 -26.723 998.281 889.047 573.277
-28.9226 -25.7446 961.73 931.077 574.255
10.2859 -25.1963 941.248 970.286 574.804
48.5377 -25.0206 934.685 1008.54 574.979
87.7786 -25.2849 944.558 1047.78 574.715
127.415 -25.4663 951.335 1087.41 574.534
171.026 -26.1711 977.664 1131.03 573.829
218.55 -27.0932 1012.11 1178.55 572.907
265.368 -27.6475 1032.82 1225.37 572.353
320.774 -28.8207 1076.64 1280.77 571.179
-77.0673 -24.2006 1006.86 882.933 575.799
-34.3272 -23.2152 965.865 925.673 576.785
5.15565 -22.6912 944.066 965.156 577.309
43.5678 -22.5381 937.697 1003.57 577.462
82.5355 -22.6812 943.651 1042.54 577.319
122.619 -22.9418 954.493 1082.62 577.058
164.649 -23.3523 971.57 1124.65 576.648
211.835 -24.1917 1006.49 1171.83 575.808
260.494 -24.8981 1035.88 1220.49 575.102
314.346 -25.8333 1074.79 1274.35 574.167
-83.1269 -21.5926 1013.64 876.873 578.407
-39.6274 -20.5854 966.351 920.373 579.415
-0.00541645 -20.0462 941.039 959.995 579.954
38.2674 -19.8845 933.449 998.267 580.115
76.9852 -20.0001 938.876 1036.99 580
116.77 -20.2234 949.357 1076.77 579.777
158.237 -20.5536 964.859 1118.24 579.446
203.656 -21.1624 993.437 1163.66 578.838
254.553 -22.0426 1034.76 1214.55 577.957
307.76 -22.8427 1072.32 1267.76 577.157
-91.0951 -19.3371 1041.38 868.905 580.663
-44.9619 -17.9646 967.462 915.038 582.035
-5.16275 -17.5174 943.379 954.837 582.483
33.209 -17.3563 934.706 993.209 582.644
71.621 -17.3776 935.851 1031.62 582.622
111.336 -17.5899 947.283 1071.34 582.41
152.915 -17.9107 964.559 1112.91 582.089
197.743 -18.402 991.021 1157.74 581.598
248.548 -19.1872 1033.31 1208.55 580.813
302.017 -19.9194 1072.74 1262.02 580.081
-50.1489 -15.289 965.499 909.851 584.711
-10.3807 -15.0265 948.923 949.619 584.974
28.0494 -14.7752 933.054 988.049 585.225
66.111 -14.7317 930.31 1026.11 585.268
105.754 -14.9436 943.689 1065.75 585.056
146.972 -15.2048 960.185 1106.97 584.795
192.497 -15.7071 991.906 1152.5 584.293
240.574 -16.2061 1023.42 1200.57 583.794
295.133 -16.9287 1069.05 1255.13 583.071
-55.5705 -12.6826 967.996 904.429 587.317
-15.5997 -12.4577 950.831 944.4 587.542
22.9732 -12.2379 934.054 982.973 587.762
60.8573 -12.1553 927.751 1020.86 587.845
100.957 -12.4085 947.081 1060.96 587.591
141.412 -12.5526 958.08 1101.41 587.447
187.242 -13.0075 992.793 1147.24 586.993
233.323 -13.3142 1016.2 1193.32 586.686
287.21 -13.9059 1061.37 1247.21 586.094
-60.8272 -10.0308 967.435 899.173 589.969
-20.7958 -9.85773 950.743 939.204 590.142
17.874 -9.68856 934.427 977.874 590.311
55.761 -9.61512 927.344 1015.76 590.385
95.0974 -9.74983 940.337 1055.1 590.25
135.593 -9.89141 953.991 1095.59 590.109
180.325 -10.2094 984.662 1140.33 589.791
227.251 -10.5126 1013.9 1187.25 589.487
277.157 -10.8385 1045.34 1237.16 589.161
-66.249 -7.40124 969.382 893.751 592.599
-26.0678 -7.27972 953.465 933.932 592.72
12.7316 -7.11537 931.939 972.732 592.885
50.6841 -7.07927 927.212 1010.68 592.921
90.0678 -7.18835 941.498 1050.07 592.812
130.401 -7.28502 954.16 1090.4 592.715
174.163 -7.48442 980.276 1134.16 592.516
221.974 -7.75041 1015.11 1181.97 592.25
270.642 -7.9576 1042.25 1230.64 592.042
329.023 -8.35494 1094.29 1289.02 591.645
-72.294 -4.80101 979.482 887.706 595.199
-31.3208 -4.67954 954.7 928.679 595.32
7.58994 -4.53994 926.219 967.59 595.46
45.4148 -4.52485 923.14 1005.41 595.475
84.8557 -4.61129 940.776 1044.86 595.389
124.621 -4.65584 949.865 1084.62 595.344
167.582 -4.77013 973.181 1127.58 595.23
216.429 -4.97578 1015.14 1176.43 595.024
264.127 -5.09292 1039.04 1224.13 594.907
322.96 -5.36242 1094.02 1282.96 594.638
-78.4942 -2.14679 990.148 881.506 597.853
-36.5607 -2.07111 955.242 923.439 597.929
2.54065 -2.01949 931.434 962.541 597.981
40.5326 -2.00966 926.902 1000.53 597.99
79.8505 -2.04327 942.404 1039.85 597.957
119.178 -2.05514 947.876 1079.18 597.945
160.729 -2.09007 963.989 1120.73 597.91
209.724 -2.18891 1009.58 1169.72 597.811
258.313 -2.25163 1038.5 1218.31 597.748
317.008 -2.37222 1094.12 1277.01 597.628
-83.981 0.560203 991.018 876.019 600.56
-41.9245 0.541808 958.478 918.076 600.542
-2.57133 0.53064 938.72 957.429 600.531
35.0623 0.518004 916.367 995.062 600.518
73.535 0.524425 927.725 1033.53 600.524
113.207 0.532104 941.31 1073.21 600.532
154.936 0.543091 960.747 1114.94 600.543
201.289 0.562544 995.16 1161.29 600.563
252.874 0.587598 1039.48 1212.87 600.588
308.55 0.61356 1085.41 1268.55 600.614
-89.7391 3.28153 994.791 870.261 603.282
-47.476 3.18264 964.812 912.524 603.183
-7.77983 3.12738 948.06 952.22 603.127
30.0919 3.02678 917.564 990.092 603.027
68.399 3.05743 926.855 1028.4 603.057
107.97 3.1025 940.518 1067.97 603.102
149.629 3.16806 960.393 1109.63 603.168
195.564 3.27798 993.715 1155.56 603.278
247.717 3.43624 1041.69 1207.72 603.436
300.83 3.55931 1079 1260.83 603.559
-95.7836 6.03894 1001.13 864.216 606.039
-53.0659 5.85469 970.582 906.934 605.855
-13.0709 5.76654 955.968 946.929 605.767
25.2779 5.57952 924.964 985.278 605.58
62.4228 5.51066 913.549 1022.42 605.511
102.519 5.65626 937.687 1062.52 605.656
143.378 5.75305 953.733 1103.38 605.753
190.548 6.00736 995.892 1150.55 606.007
240.032 6.23196 1033.13 1200.03 606.232
293.234 6.47123 1072.79 1253.23 606.471
-102.521 8.88505 1013.63 857.479 608.885
-58.5746 8.53724 973.951 901.425 608.537
-18.3737 8.41473 959.974 941.626 608.415
20.6603 8.28386 945.044 980.66 608.284
57.2305 7.98016 910.398 1017.23 607.98
97.1896 8.20224 935.733 1057.19 608.202
137.72 8.33318 950.671 1097.72 608.333
185.063 8.72762 995.67 1145.06 608.728
231.915 8.96053 1022.24 1191.91 608.961
286.976 9.39076 1071.32 1246.98 609.391
342.054 9.70724 1107.43 1302.05 609.707
-108.767 11.7317 1020.23 851.233 611.732
-63.7996 11.182 972.435 896.2 611.182
-23.6071 11.0319 959.378 936.393 611.032
15.5405 10.8998 947.891 975.541 610.9
52.0618 10.4303 907.058 1012.06 610.43
91.8394 10.7326 933.348 1051.84 610.733
131.975 10.8865 946.738 1091.97 610.887
177.847 11.3362 985.845 1137.85 611.336
225.068 11.6894 1016.56 1185.07 611.689
278.054 12.1848 1059.64 1238.05 612.185
335.36 12.7101 1105.32 1295.36 612.71
-114.737 14.5704 1023.74 845.263 614.57
-69.2929 13.8756 974.926 890.707 613.876
-28.8878 13.6713 960.573 931.112 613.671
10.3632 13.4969 948.322 970.363 613.497
47.2005 12.9364 908.936 1007.2 612.936
86.813 13.2955 934.167 1046.81 613.295
126.772 13.4715 946.534 1086.77 613.471
171.837 13.9805 982.3 1131.84 613.981
219.84 14.4898 1018.08 1179.84 614.49
269.079 14.905 1047.26 1229.08 614.905
330.566 15.7911 1109.51 1290.57 615.791
-122.616 17.698 1043.15 837.384 617.698
-74.6501 16.5465 975.284 885.35 616.547
-34.1411 16.2979 960.628 925.859 616.298
5.17294 16.0706 947.232 965.173 616.071
43.1017 15.7386 927.664 1003.1 615.739
81.3199 15.7741 929.752 1041.32 615.774
120.924 15.9699 941.296 1080.92 615.97
164.204 16.439 968.945 1124.2 616.439
214.463 17.2878 1018.98 1174.46 617.288
262.927 17.7388 1045.56 1222.93 617.739
323.345 18.7568 1105.56 1283.35 618.757
-80.2284 19.2717 978.291 879.772 619.272
-39.466 18.9589 962.415 920.534 618.959
-0.00546793 18.714 949.983 959.995 618.714
38.7223 18.6069 944.545 998.722 618.607
75.5623 18.1534 921.523 1035.56 618.153
115.521 18.5016 939.203 1075.52 618.502
158.528 19.042 966.631 1118.53 619.042
208.428 20.0286 1016.72 1168.43 620.029
257.167 20.5933 1045.38 1217.17 620.593
316.781 21.7431 1103.75 1276.78 621.743
-85.3587 21.8899 975.801 874.641 621.89
-44.5808 21.5188 959.261 915.419 621.519
-5.18156 21.2397 946.816 954.818 621.24
33.567 21.194 944.781 993.567 621.194
69.6549 20.4174 910.16 1029.65 620.417
109.896 20.9753 935.03 1069.9 620.975
152.353 21.5582 961.017 1112.35 621.558
199.592 22.4392 1000.29 1159.59 622.439
251.303 23.4369 1044.76 1211.3 623.437
308.422 24.5748 1095.49 1268.42 624.575
365.884 25.4474 1134.39 1325.88 625.447
-90.6363 24.5417 975.188 869.364 624.542
-49.8708 24.1631 960.144 910.129 624.163
-10.3938 23.9108 950.117 949.606 623.911
28.396 23.7715 944.58 988.396 623.771
64.6416 22.892 909.632 1024.64 622.892
104.89 23.555 935.979 1064.89 623.555
146.763 24.1297 958.816 1106.76 624.13
193.224 25.0567 995.65 1153.22 625.057
245.226 26.2535 1043.21 1205.23 626.253
301.251 27.4615 1091.21 1261.25 627.461
355.686 28.2309 1121.78 1315.69 628.231
-96.3844 27.3255 979.424 863.616 627.326
-55.2966 26.8736 963.225 904.703 626.874
-15.5772 26.4896 949.462 944.423 626.49
23.2309 26.3521 944.533 983.231 626.352
59.8058 25.4367 911.721 1019.81 625.437
99.4822 26.0372 933.246 1059.48 626.037
140.86 26.6258 954.342 1100.86 626.626
188.002 27.811 996.824 1148 627.811
239.042 29.0467 1041.11 1199.04 629.047
293.716 30.2825 1085.41 1253.72 630.283
348.612 31.213 1118.76 1308.61 631.213
-101.692 29.989 978.975 858.308 629.989
-60.5128 29.4823 962.435 899.487 629.482
-20.8418 29.1885 952.845 939.158 629.189
17.9991 28.8248 940.971 977.999 628.825
56.5319 28.8001 940.166 1016.53 628.8
94.1699 28.5244 931.166 1054.17 628.524
135.353 29.1718 952.3 1095.35 629.172
182.506 30.528 996.57 1142.51 630.528
232.15 31.7283 1035.76 1192.15 631.728
286.616 33.1146 1081.01 1246.62 633.115
342.025 34.2239 1117.22 1302.02 634.224
-107.494 32.8022 983.089 852.506 632.802
-65.7189 32.086 961.625 894.281 632.086
-25.9238 31.638 948.198 934.076 631.638
12.8599 31.409 941.333 972.86 631.409
51.4928 31.4314 942.007 1011.49 631.431
88.791 30.9691 928.151 1048.79 630.969
129.439 31.602 947.119 1089.44 631.602
175.864 33.0278 989.85 1135.86 633.028
224.348 34.233 1025.97 1184.35 634.233
279.684 35.9381 1077.07 1239.68 635.938
336.694 37.364 1119.81 1296.69 637.364
-113.407 35.6587 987.78 846.593 635.659
-70.9722 34.7127 961.573 889.028 634.713
-31.2313 34.3662 951.974 928.769 634.366
7.70083 33.9249 939.751 967.701 633.925
46.2906 33.9679 940.943 1006.29 633.968
82.1798 32.891 911.11 1042.18 632.891
123.405 33.9555 940.598 1083.41 633.956
168.051 35.23 975.903 1128.05 635.23
218.024 36.9164 1022.62 1178.02 636.916
272.014 38.6293 1070.07 1232.01 638.629
330.479 40.4135 1119.49 1290.48 640.414
-119.416 38.5554 992.844 840.584 638.555
-76.2461 37.3495 961.79 883.754 637.349
-36.4515 36.9844 952.387 923.549 636.984
2.56457 36.5112 940.202 962.565 636.511
41.0857 36.4859 939.551 1001.09 636.486
77.3349 35.4437 912.715 1037.33 635.444
118.012 36.4489 938.599 1078.01 636.449
160.47 37.3746 962.436 1120.47 637.375
211.968 39.6246 1020.38 1171.97 639.625
262.735 41.0188 1056.28 1222.74 641.019
324.675 43.5159 1120.58 1284.67 643.516
-126.174 41.7091 1003.43 833.826 641.709
-81.461 39.9573 961.281 878.539 639.957
-41.6455 39.5758 952.101 918.354 639.576
-2.56911 38.9858 937.909 957.431 638.986
35.815 38.9081 936.04 995.815 638.908
72.4158 37.9756 913.605 1032.42 637.976
112.622 38.9251 936.447 1072.62 638.925
154.859 39.9152 960.268 1114.86 639.915
205.663 42.2644 1016.78 1165.66 642.264
256.099 43.7588 1052.74 1216.1 643.759
317.339 46.402 1116.32 1277.34 646.402
-86.603 42.5294 960.027 873.397 642.529
-46.92 42.2408 953.512 913.08 642.241
-7.72044 41.6786 940.823 952.28 641.679
30.7535 41.542 937.738 990.754 641.542
69.2034 41.5427 937.755 1029.2 641.543
107.285 41.4008 934.551 1067.28 641.401
149.704 42.5669 960.875 1109.7 642.567
198.434 44.6676 1008.29 1158.43 644.668
250.856 46.7319 1054.89 1210.86 646.732
311.06 49.4254 1115.69 1271.06 649.425
368.812 51.0887 1153.24 1328.81 651.089
-91.8162 45.1362 959.659 868.184 645.136
-52.0118 44.7431 951.301 907.988 644.743
-12.872 44.2785 941.423 947.128 644.279
25.6415 44.1301 938.267 985.641 644.13
64.1072 44.1269 938.2 1024.11 644.127
101.294 43.5758 926.481 1061.29 643.576
143.728 44.9671 956.062 1103.73 644.967
190.959 46.9413 998.038 1150.96 646.941
244.528 49.5018 1052.48 1204.53 649.502
302.725 52.0903 1107.51 1262.72 652.09
360.529 53.9449 1146.94 1320.53 653.945
-97.4836 47.9666 963.823 862.516 647.967
-57.173 47.3108 950.645 902.827 647.311
-18.1217 47.1199 946.809 941.878 647.12
20.5512 46.7838 940.056 980.551 646.784
58.8587 46.5968 936.299 1018.86 646.597
95.378 45.7007 918.292 1055.38 645.701
137.556 47.2556 949.536 1097.56 647.256
186.125 49.8359 1001.38 1146.12 649.836
239.106 52.4515 1053.94 1199.11 652.451
296.362 55.0604 1106.36 1256.36 655.06
352.845 56.8522 1142.37 1312.84 656.852
-102.748 50.5987 963.777 857.252 650.599
-62.4116 49.9426 951.279 897.588 649.943
-23.3003 49.7133 946.911 936.7 649.713
15.3344 49.1046 935.316 975.334 649.105
53.8328 49.2409 937.914 1013.83 649.241
89.8226 47.9252 912.852 1049.82 647.925
131.708 49.6039 944.828 1091.71 649.604
179.786 52.3215 996.591 1139.79 652.321
231.604 54.9197 1046.08 1191.6 654.92
289.864 57.9947 1104.65 1249.86 657.995
344.939 59.6874 1136.89 1304.94 659.687
-108.501 53.4716 968.094 851.5 653.472
-67.4444 52.4125 948.919 892.556 652.412
-28.4532 52.258 946.121 931.547 652.258
10.2739 51.9279 940.145 970.274 651.928
48.6629 51.7595 937.096 1008.66 651.759
85.7976 50.9942 923.241 1045.8 650.994
125.894 51.9189 939.982 1085.89 651.919
172.582 54.4914 986.557 1132.58 654.491
225.085 57.5744 1042.37 1185.09 657.574
285.583 61.3921 1111.49 1245.58 661.392
338.906 62.8288 1137.5 1298.91 662.829
-113.901 56.1713 969.017 846.099 656.171
-72.5972 54.98 948.464 887.403 654.98
-33.6161 54.8288 945.857 926.384 654.829
5.12464 54.3959 938.389 965.125 654.396
43.4101 54.159 934.302 1003.41 654.159
81.6828 54.1358 933.902 1041.68 654.136
120.265 54.2671 936.167 1080.27 654.267
164.541 56.2825 970.934 1124.54 656.282
216.253 59.5605 1027.48 1176.25 659.56
279.016 64.3171 1109.54 1239.02 664.317
333.415 66.0823 1139.99 1293.41 666.082
-119.863 59.1476 974.412 840.137 659.148
-77.8063 57.5902 948.756 882.194 657.59
-38.8333 57.4828 946.987 921.167 657.483
-0.0054041 56.9915 938.893 959.995 656.992
38.4161 56.8812 937.076 998.416 656.881
76.5535 56.6709 933.611 1036.55 656.671
115.028 56.7673 935.198 1075.03 656.767
157.784 58.3999 962.096 1117.78 658.4
210.016 62.1856 1024.46 1170.02 662.186
272.467 67.2307 1107.57 1232.47 667.231
329.012 69.5853 1146.37 1289.01 669.585
-125.739 62.0822 978.686 834.261 662.082
-82.9726 60.1688 948.523 877.027 660.169
-43.7188 59.6734 940.714 916.281 659.673
-5.1174 59.3168 935.092 954.883 659.317
33.2586 59.3809 936.102 993.259 659.381
71.0513 58.8928 928.408 1031.05 658.893
108.946 58.8004 926.951 1068.95 658.8
152.452 61.0008 961.638 1112.45 661.001
204.102 64.8862 1022.89 1164.1 664.886
261.42 68.9416 1086.82 1221.42 668.942
322.056 72.5636 1143.92 1282.06 672.564
374.086 73.572 1159.82 1334.09 673.572
-133.134 65.7675 993.953 826.866 665.768
-88.1308 62.7421 948.23 871.869 662.742
-48.919 62.318 941.82 911.081 662.318
-10.2661 62.0945 938.442 949.734 662.094
28.1743 62.0128 937.207 988.174 662.013
66.2849 61.7183 932.756 1026.28 661.718
103.068 60.8552 919.713 1063.07 660.855
147.24 63.6491 961.938 1107.24 663.649
196.765 67.0872 1013.9 1156.77 667.087
251.747 70.862 1070.95 1211.75 670.862
316.65 75.8936 1146.99 1276.65 675.894
368.326 76.8635 1161.65 1328.33 676.864
-154.361 76.2898 1107.24 805.639 676.29
-92.6601 64.8758 941.579 867.34 664.876
-53.9696 64.7746 940.11 906.03 664.775
-15.3833 64.6045 937.642 944.617 664.604
23.0355 64.5319 936.587 983.035 664.532
61.1918 64.2743 932.85 1021.19 664.274
98.9491 63.957 928.244 1058.95 663.957
141.138 65.8849 956.224 1101.14 665.885
189.144 69.0996 1002.88 1149.14 669.1
244.441 73.354 1064.63 1204.44 673.354
309.863 78.8973 1145.08 1269.86 678.897
361.897 80.0214 1161.4 1321.9 680.021
-97.8251 67.4616 941.747 862.175 667.462
-58.8488 67.0477 935.969 901.151 667.048
-20.5573 67.325 939.84 939.443 667.325
17.9233 67.1219 937.005 977.923 667.122
56.1499 66.8932 933.812 1016.15 666.893
94.3006 66.7961 932.458 1054.3 666.796
135.066 68.0732 950.285 1095.07 668.073
184.145 72.03 1005.52 1144.15 672.03
238.992 76.3825 1066.28 1198.99 676.383
304.683 82.319 1149.15 1264.68 682.319
355.528 83.1914 1161.33 1315.53 683.191
-102.684 69.8392 939.104 857.316 669.839
-63.3312 68.9157 926.686 896.669 668.916
-25.6381 69.7385 937.749 934.362 669.738
12.7995 69.6759 936.909 972.799 669.676
51.0044 69.3906 933.071 1011 669.391
88.529 68.821 925.413 1048.53 668.821
129.066 70.2322 944.389 1089.07 670.232
176.841 74.022 995.348 1136.84 674.022
232.979 79.2346 1065.44 1192.98 679.235
298.069 85.3651 1147.87 1258.07 685.365
348.597 86.2218 1159.39 1308.6 686.222
-109.14 73.294 950.619 850.859 673.294
-68.5834 71.6432 929.208 891.417 671.643
-30.6035 71.9229 932.835 929.397 671.923
7.68089 72.2685 937.318 967.681 672.268
45.881 71.906 932.617 1005.88 671.906
83.7115 71.5571 928.091 1043.71 671.557
123.094 72.3386 938.228 1083.09 672.339
170.384 76.2882 989.453 1130.38 676.288
227.474 82.2626 1066.94 1187.47 682.263
293.252 88.945 1153.61 1253.25 688.945
343.364 89.6796 1163.14 1303.36 689.68
-114.151 75.7685 949.066 845.849 675.768
-73.5293 74.0482 927.518 886.471 674.048
-35.4112 73.8638 925.208 924.589 673.864
2.55692 74.837 937.399 962.557 674.837
40.649 74.2115 929.563 1000.65 674.211
78.7814 74.2294 929.787 1038.78 674.229
116.92 74.2393 929.911 1076.92 674.239
161.692 77.4208 969.763 1121.69 677.421
219.812 84.4762 1058.14 1179.81 684.476
287.407 92.2466 1155.47 1247.41 692.247
337.376 92.9609 1164.42 1297.38 692.961
-119.741 78.6265 952.261 840.259 678.627
-78.6769 76.6586 928.427 881.323 676.659
-40.6319 76.6999 928.927 919.368 676.7
-2.56485 77.3133 936.356 957.435 677.313
35.703 77.0454 933.112 995.703 677.045
73.8729 76.9526 931.988 1033.87 676.953
112.118 76.9744 932.252 1072.12 676.974
155.693 79.7144 965.436 1115.69 679.714
211.073 86.1623 1043.53 1171.07 686.162
281.734 95.6233 1158.11 1241.73 695.623
332.944 96.7055 1171.22 1292.94 696.706
-124.391 80.8684 948.029 835.609 680.868
-83.7525 79.1964 928.428 876.247 679.196
-45.3197 78.562 920.99 914.68 678.562
-7.64891 79.5102 932.106 952.351 679.51
30.6337 79.6791 934.086 990.634 679.679
68.4528 79.1244 927.584 1028.45 679.124
107.578 79.9367 937.105 1067.58 679.937
150.434 82.3638 965.559 1110.43 682.364
204.112 88.4704 1037.15 1164.11 688.47
275.722 98.9037 1159.46 1235.72 698.904
326.431 99.8734 1170.83 1286.43 699.873
377.986 100.82 1181.92 1337.99 700.82
-129.58 83.4638 948.075 830.42 683.464
-88.7214 81.636 927.312 871.279 681.636
-50.269 80.9417 919.425 909.731 680.942
-12.6932 81.7272 928.348 947.307 681.727
25.6003 82.4677 936.76 985.6 682.468
63.8065 82.2071 933.799 1023.81 682.207
101.606 81.8144 929.339 1061.61 681.814
144.667 84.7172 962.311 1104.67 684.717
197.7 90.9641 1033.27 1157.7 690.964
270.22 102.39 1163.06 1230.22 702.39
321.941 103.689 1177.82 1281.94 703.689
372.135 104.222 1183.87 1332.14 704.222
-137.313 87.6833 966.01 822.687 687.683
-93.6914 84.0815 926.329 866.309 684.082
-55.0809 83.1311 915.859 904.919 683.131
-17.7137 84.0054 925.491 942.286 684.005
20.4178 84.7734 933.952 980.418 684.773
58.5941 84.6044 932.089 1018.59 684.604
96.45 84.2887 928.612 1056.45 684.289
138.346 86.6832 954.992 1098.35 686.683
188.832 92.2163 1015.95 1148.83 692.216
263.972 105.613 1163.54 1223.97 705.613
315.807 107.012 1178.95 1275.81 707.012
364.6 107.145 1180.42 1324.6 707.145
-152.909 96.8577 1035.89 807.091 696.858
-98.9319 86.7682 927.983 861.068 686.768
-60.2009 85.7958 917.583 899.799 685.796
-22.6555 86.0879 920.707 937.344 686.088
15.3045 87.2838 933.497 975.305 687.284
53.4549 87.0812 931.33 1013.45 687.081
92.433 87.8339 939.381 1052.43 687.834
132.181 88.6603 948.219 1092.18 688.66
181.921 94.2898 1008.43 1141.92 694.29
257.684 108.824 1163.87 1217.68 708.824
311.159 110.875 1185.8 1271.16 710.875
359.263 110.716 1184.1 1319.26 710.716
-158.194 99.4516 1033.42 801.806 699.452
-104.098 89.3847 928.813 855.902 689.385
-65.1682 88.2376 916.894 894.832 688.238
-27.471 87.9074 913.462 932.529 687.907
10.1189 89.1103 925.962 970.119 689.11
48.3567 89.6144 931.201 1008.36 689.614
86.5005 89.5763 930.804 1046.5 689.576
126.092 90.6017 941.46 1086.09 690.602
174.788 96.1552 999.167 1134.79 696.155
250.067 111.447 1158.07 1210.07 711.447
305.537 114.438 1189.15 1265.54 714.438
352.267 113.784 1182.35 1312.27 713.784
-110.133 92.7294 936.955 849.867 692.729
-70.0992 90.6385 915.829 889.901 690.638
-32.6182 90.8314 917.778 927.382 690.831
5.06454 91.782 927.383 965.065 691.782
43.3485 92.3355 932.976 1003.35 692.336
81.732 92.4828 934.464 1041.73 692.483
121.275 93.429 944.024 1081.27 693.429
167.225 97.6594 986.769 1127.22 697.659
240.762 113.214 1143.94 1200.76 713.214
299.905 118.031 1192.61 1259.91 718.031
347.257 117.508 1187.32 1307.26 717.508
-114.884 94.9838 933.94 845.116 694.984
-74.9489 92.9471 913.914 885.051 692.947
-37.4878 92.9736 914.175 922.512 692.974
-0.00528791 93.4346 918.707 959.995 693.435
38.2698 94.9397 933.507 998.27 694.94
76.4539 94.8269 932.397 1036.45 694.827
116.231 96.1061 944.975 1076.23 696.106
159.491 98.9059 972.504 1119.49 698.906
227.721 112.973 1110.82 1187.72 712.973
295.035 121.973 1199.31 1255.03 721.973
340.695 120.728 1187.07 1300.7 720.728
385.944 119.667 1176.64 1345.94 719.667
-120.538 97.9819 938.203 839.462 697.982
-80.0385 95.5567 914.981 879.962 695.557
-42.1248 94.662 906.415 917.875 694.662
-5.04561 96.2869 921.974 954.954 696.287
33.2723 97.8026 936.487 993.272 697.803
71.2586 97.2417 931.116 1031.26 697.242
110.858 98.5059 943.221 1070.86 698.506
153.847 101.349 970.44 1113.85 701.349
218.733 114.484 1096.21 1178.73 714.484
290.802 126.26 1208.97 1250.8 726.26
334.875 124.221 1189.45 1294.88 724.221
380.159 123.093 1178.64 1340.16 723.093
-125.558 100.459 937.389 834.442 700.459
-84.9015 97.8973 913.484 875.099 697.897
-47.04 97.057 905.643 912.96 697.057
-10.0215 98.1756 916.081 949.979 698.176
27.8552 99.3022 926.594 987.855 699.302
66.4183 100.164 934.634 1026.42 700.164
105.29 100.69 939.543 1065.29 700.69
148.041 103.651 967.169 1108.04 703.651
212.273 117.222 1093.81 1172.27 717.222
285.992 130.385 1216.63 1245.99 730.385
328.006 127.33 1188.12 1288.01 727.33
373.675 126.301 1178.52 1333.68 726.301
-131.203 103.432 941.126 828.797 703.432
-90.1274 100.653 915.842 869.873 700.653
-52.0695 99.6827 907.01 907.931 699.683
-15.0492 100.811 917.279 944.951 700.811
22.6274 101.11 919.995 982.627 701.11
61.6002 103.207 939.076 1021.6 703.207
100.344 103.455 941.334 1060.34 703.455
141.956 105.7 961.764 1101.96 705.7
203.493 118.58 1078.96 1163.49 718.58
323.088 131.218 1193.95 1283.09 731.218
367.613 129.656 1179.74 1327.61 729.656
-136.225 105.909 940.277 823.775 705.909
-94.9203 102.925 913.783 865.08 702.925
