ply
format ascii 1.0
element vertex 1681
property float x
property float y
property float z
property float u
property float v
end_header
-679.41 -833.962 2856.89 0 0
-481.594 -829.503 2841.62 0 0
-41.3329 -367.775 1259.88 0 0
288.975 -812.164 2782.22 0 0
477.961 -810.233 2775.61 0 0
668.205 -810.925 2777.98 0 0
852.851 -806.021 2761.18 0 0
1031.51 -798.259 2734.59 0 0
1221.94 -800.595 2742.59 0 0
1414.67 -803.61 2752.92 0 0
1611.1 -807.775 2767.19 0 0
-579.819 -828.908 2866.42 0 0
-82.7041 -364.532 1260.58 0 0
3.49068 -370.069 1279.73 0 0
390.129 -809.307 2798.64 0 0
581.738 -809.811 2800.38 0 0
768.342 -804.823 2783.14 0 0
952.749 -799.969 2766.35 0 0
1131.65 -792.864 2741.78 0 0
1331.74 -800.518 2768.25 0 0
1524.63 -802.475 2775.02 0 0
1727.71 -808.77 2796.79 0 0
-37.8015 -360.053 1256.97 0 0
299.939 -805.981 2813.74 0 0
491.705 -805.141 2810.8 0 0
683.436 -804.732 2809.38 0 0
870.123 -799.866 2792.39 0 0
1049.4 -791.16 2762 0 0
1239.69 -792.152 2765.46 0 0
1438.62 -797.669 2784.72 0 0
1631.74 -799.049 2789.54 0 0
-78.4147 -353.833 1247.16 0 0
6.98909 -363.092 1279.79 0 0
401.777 -801.989 2826.77 0 0
594.954 -801.999 2826.81 0 0
786.081 -799.917 2819.47 0 0
970.469 -793.148 2795.61 0 0
1151.99 -786.65 2772.71 0 0
1357.47 -796.034 2805.78 0 0
1543.22 -792.957 2794.94 0 0
-34.4898 -354.457 1261.51 0 0
311.116 -799.557 2845.62 0 0
505.398 -799.28 2844.63 0 0
698.223 -797.492 2838.27 0 0
887.908 -793.674 2824.68 0 0
1066.1 -782.781 2785.91 0 0
1264.12 -787.546 2802.87 0 0
1466.88 -793.614 2824.47 0 0
1661.1 -794.191 2826.52 0 0
-75.0468 -347.206 1247.84 0 0
10.5095 -356.85 1282.5 0 0
414.006 -795.183 2857.86 0 0
609.681 -795.68 2859.64 0 0
800.678 -791.312 2843.94 0 0
990.573 -787.775 2831.23 0 0
1174.39 -781.35 2808.14 0 0
1384.88 -791.985 2846.36 0 0
-31.0964 -348.175 1263.74 0 0
714.563 -791.481 2872.77 0 0
905.884 -787.143 2857.03 0 0
1092.94 -781.297 2835.81 0 0
1287.46 -781.741 2837.42 0 0
1494.1 -788.466 2861.83 0 0
-72.4087 -344.056 1261.3 0 0
14.0387 -350.425 1284.65 0 0
1009.08 -780.627 2861.77 0 0
-118.775 -355.559 1316.67 0 0
-27.7238 -342.276 1267.48 0 0
59.8696 -347.967 1288.56 0 0
-69.1149 -337.913 1264.12 0 0
17.5443 -343.287 1284.22 0 0
106.669 -347.741 1300.88 0 0
-110.894 -335.409 1267.72 0 0
-24.2631 -335.4 1267.68 0 0
63.168 -339.719 1284.01 0 0
148.366 -333.99 1262.35 0 0
-65.3999 -329.693 1259.12 0 0
20.9889 -335.217 1280.22 0 0
108.242 -334.503 1277.49 0 0
-108.465 -331.646 1279.94 0 0
-20.9288 -330.535 1275.65 0 0
66.5345 -331.985 1281.25 0 0
150.723 -324.731 1253.25 0 0
-60.0267 -312.747 1219.87 0 0
24.3713 -326.65 1274.1 0 0
110.844 -324.909 1267.31 0 0
-105.529 -326.39 1286.81 0 0
-17.5297 -325.19 1282.07 0 0
69.5914 -322.914 1273.1 0 0
153.321 -316.173 1246.52 0 0
-57.9158 -312.683 1246.2 0 0
27.7358 -318.328 1268.69 0 0
113.142 -314.737 1254.38 0 0
-100.707 -315.272 1270.35 0 0
-13.9474 -316.416 1274.96 0 0
72.2215 -312.28 1258.29 0 0
-149.165 -326.667 1330.92 0 0
-55.3161 -310.397 1264.64 0 0
31.0246 -309.605 1261.41 0 0
115.279 -304.467 1240.48 0 0
-95.4685 -302.725 1247.27 0 0
-10.357 -306.328 1262.11 0 0
74.4636 -300.568 1238.38 0 0
-143.368 -314.651 1311.17 0 0
-51.2483 -299.908 1249.74 0 0
34.1514 -299.889 1249.66 0 0
117.502 -294.757 1228.27 0 0
-92.6003 -297.646 1254.6 0 0
-6.83072 -296.118 1248.16 0 0
76.8931 -290.192 1223.18 0 0
-137.115 -301.613 1286.14 0 0
-47.6385 -291.889 1244.68 0 0
37.1713 -289.969 1236.49 0 0
119.929 -285.824 1218.81 0 0
-89.5582 -292.05 1260.05 0 0
-3.38429 -286.361 1235.51 0 0
79.5743 -281.165 1213.09 0 0
-132.655 -292.499 1277.05 0 0
-43.9964 -283.539 1237.93 0 0
40.0958 -280.028 1222.6 0 0
123.129 -278.864 1217.52 0 0
-183.796 -304.328 1344.74 0 0
-85.2359 -282.254 1247.2 0 0
-0.00705736 -277.484 1226.12 0 0
81.5802 -270.194 1193.91 0 0
-128.191 -283.366 1267.43 0 0
-40.2618 -274.38 1227.23 0 0
42.9175 -270.071 1207.96 0 0
126.308 -271.886 1216.08 0 0
-179.672 -296.238 1341.4 0 0
-80.8457 -272.134 1232.25 0 0
3.31897 -268.716 1216.77 0 0
84.6521 -263.072 1191.22 0 0
-122.628 -271.787 1246.11 0 0
-36.7408 -266.464 1221.7 0 0
45.8761 -261.511 1198.99 0 0
129.851 -265.687 1218.14 0 0
-175.244 -287.656 1335.6 0 0
-77.031 -263.868 1225.15 0 0
6.59095 -259.935 1206.89 0 0
87.4701 -255.281 1185.28 0 0
-118.072 -262.419 1234.09 0 0
-33.2063 -258.268 1214.56 0 0
48.6388 -252.286 1186.44 0 0
133.069 -258.809 1217.11 0 0
-171.144 -279.619 1332.1 0 0
-73.0066 -254.812 1213.92 0 0
9.79834 -250.992 1195.72 0 0
90.0813 -247.077 1177.07 0 0
-113.074 -252.051 1216.6 0 0
-29.6809 -249.899 1206.22 0 0
51.2389 -242.754 1171.73 0 0
136.754 -252.818 1220.31 0 0
-167.027 -271.564 1328.32 0 0
-68.9802 -245.654 1201.58 0 0
12.9414 -242.109 1184.24 0 0
92.8627 -239.517 1171.57 0 0
-108.657 -242.958 1204.5 0 0
-26.2703 -242.257 1201.03 0 0
54.0074 -234.463 1162.38 0 0
140.442 -246.767 1223.38 0 0
-162.344 -262.599 1319.76 0 0
-64.9624 -236.416 1188.17 0 0
15.8577 -230.964 1160.77 0 0
95.773 -232.404 1168 0 0
-211.783 -266.737 1359.23 0 0
-104.213 -233.79 1191.33 0 0
-22.6637 -232.373 1184.12 0 0
56.6376 -225.926 1151.26 0 0
143.756 -240.027 1223.12 0 0
-156.52 -251.819 1301.33 0 0
-61.175 -227.91 1177.78 0 0
18.9413 -223.565 1155.32 0 0
98.4915 -224.936 1162.41 0 0
-206.681 -257.578 1350.17 0 0
-100.102 -225.353 1181.25 0 0
-19.0051 -220.994 1158.4 0 0
59.1949 -217.466 1139.91 0 0
146.948 -233.101 1221.87 0 0
-146.166 -233.831 1243.51 0 0
-57.5497 -219.92 1169.53 0 0
21.8048 -214.354 1139.93 0 0
101.677 -218.599 1162.5 0 0
-202.25 -249.285 1345.24 0 0
-95.503 -215.8 1164.55 0 0
-15.788 -213.974 1154.69 0 0
62.0192 -210.246 1134.58 0 0
150.092 -226.126 1220.27 0 0
-138.71 -220.581 1208.17 0 0
-53.8469 -211.539 1158.64 0 0
24.6704 -206.031 1128.48 0 0
104.593 -211.713 1159.6 0 0
-198.195 -241.47 1342.68 0 0
-91.9301 -208.55 1159.63 0 0
-12.5047 -205.572 1143.08 0 0
64.8677 -203.252 1130.17 0 0
153.097 -218.982 1217.64 0 0
-132.659 -209.633 1183.64 0 0
-50.505 -204.497 1154.65 0 0
27.5835 -198.627 1121.5 0 0
107.343 -204.574 1155.08 0 0
-193.97 -233.462 1338.85 0 0
-88.2273 -200.996 1152.67 0 0
-9.31753 -197.993 1135.45 0 0
67.3228 -195.234 1119.62 0 0
156.214 -212.039 1216 0 0
-127.061 -199.453 1162.04 0 0
-46.9831 -196.654 1145.73 0 0
30.5551 -191.905 1118.06 0 0
110.361 -198.009 1153.62 0 0
-189.912 -225.669 1336.05 0 0
-84.3686 -193.074 1143.08 0 0
-6.17959 -190.728 1129.18 0 0
70.02 -188.137 1113.85 0 0
158.752 -204.379 1210.01 0 0
-122.815 -191.434 1152.01 0 0
-44.0035 -191.051 1149.7 0 0
33.4623 -184.97 1113.11 0 0
113.182 -191.141 1150.25 0 0
-184.333 -216.106 1322.23 0 0
-81.2643 -186.871 1143.36 0 0
-3.09446 -184.639 1129.7 0 0
72.932 -181.718 1111.83 0 0
161.607 -197.212 1206.63 0 0
-233.417 -217.824 1355.41 0 0
-119.352 -184.65 1148.98 0 0
-40.3185 -182.313 1134.44 0 0
36.5702 -179.204 1115.1 0 0
115.813 -184.038 1145.17 0 0
-168.958 -195.284 1236.18 0 0
-78.1233 -180.585 1143.13 0 0
-0.00646916 -177.552 1123.93 0 0
76.0687 -175.865 1113.25 0 0
163.794 -189.332 1198.5 0 0
-228.749 -209.532 1349.72 0 0
-116.659 -179.055 1153.41 0 0
-37.1645 -175.86 1132.82 0 0
39.685 -173.4 1116.98 0 0
119.439 -178.518 1149.95 0 0
-157.749 -179.611 1177.73 0 0
-74.5807 -173.364 1136.76 0 0
3.07124 -171.716 1125.95 0 0
79.5616 -170.744 1119.59 0 0
166.214 -181.843 1192.36 0 0
-225.438 -202.493 1351.99 0 0
-112.499 -171.217 1143.17 0 0
-34.1244 -169.948 1134.7 0 0
42.6069 -166.78 1113.55 0 0
122.247 -171.761 1146.81 0 0
-152.691 -171.112 1163.71 0 0
-71.3088 -166.764 1134.14 0 0
6.13761 -165.255 1123.88 0 0
82.4146 -164.211 1116.78 0 0
168.779 -174.607 1187.48 0 0
-220.913 -194.372 1346.93 0 0
-109.422 -165.04 1143.67 0 0
-30.8131 -162.638 1127.03 0 0
45.9888 -161.882 1121.79 0 0
125.819 -166.069 1150.8 0 0
-148.255 -163.368 1153.94 0 0
-68.3026 -160.785 1135.7 0 0
9.18693 -158.718 1121.1 0 0
85.5095 -158.184 1117.33 0 0
171.283 -167.39 1182.36 0 0
-216.476 -186.358 1342.25 0 0
-106.376 -158.908 1144.54 0 0
-27.8426 -157.098 1131.51 0 0
49.1682 -156.109 1124.38 0 0
129.497 -160.436 1155.55 0 0
-145.078 -157.035 1153.76 0 0
-65.2799 -154.77 1137.13 0 0
12.2903 -153.074 1124.66 0 0
89.046 -152.904 1123.41 0 0
174.006 -160.456 1178.9 0 0
-212.986 -179.17 1343.38 0 0
-103.165 -152.528 1143.62 0 0
-24.8393 -151.459 1135.61 0 0
52.237 -149.949 1124.28 0 0
133.49 -155.089 1162.83 0 0
-141.813 -150.609 1152.86 0 0
-62.3441 -148.966 1140.28 0 0
15.4006 -147.27 1127.3 0 0
92.423 -147.25 1127.15 0 0
176.754 -153.599 1175.75 0 0
-209.574 -172.04 1345.05 0 0
-100.171 -146.469 1145.13 0 0
-21.7046 -145.046 1134.01 0 0
55.6041 -144.567 1130.26 0 0
137.594 -149.739 1170.7 0 0
-255.518 -169.575 1354.73 0 0
-138.977 -144.634 1155.48 0 0
-59.1123 -142.455 1138.07 0 0
18.5284 -141.462 1130.14 0 0
95.8912 -141.66 1131.72 0 0
179.575 -146.851 1173.18 0 0
-206.622 -165.266 1349.78 0 0
-96.5144 -139.448 1138.92 0 0
-18.5537 -138.465 1130.89 0 0
58.6854 -138.368 1130.1 0 0
141.24 -143.793 1174.4 0 0
-251.725 -162.11 1354.24 0 0
-135.878 -138.377 1155.98 0 0
-55.6471 -135.371 1130.87 0 0
21.5057 -134.584 1124.29 0 0
99.4828 -136.155 1137.41 0 0
181.716 -139.618 1166.34 0 0
-203.586 -158.396 1354.13 0 0
-93.0577 -132.732 1134.73 0 0
-15.4385 -132.077 1129.13 0 0
61.8896 -132.437 1132.2 0 0
145.216 -138.101 1180.63 0 0
-247.033 -154.089 1348.83 0 0
-132.791 -132.13 1156.62 0 0
-52.332 -128.638 1126.05 0 0
24.4862 -127.953 1120.05 0 0
103.023 -130.483 1142.19 0 0
184.198 -132.733 1161.89 0 0
-89.9343 -126.498 1134.46 0 0
-12.2602 -124.967 1120.73 0 0
64.8688 -126.022 1130.19 0 0
149.158 -132.281 1186.31 0 0
-244.004 -147.112 1352.48 0 0
-129.316 -125.503 1153.82 0 0
-49.167 -122.266 1124.06 0 0
27.5916 -122.024 1121.83 0 0
106.289 -124.407 1143.74 0 0
183.721 -123.917 1139.23 0 0
-86.8011 -120.251 1134.03 0 0
-9.16407 -118.418 1116.74 0 0
68.2305 -120.324 1134.72 0 0
153.114 -126.384 1191.87 0 0
-240.861 -140.04 1355.6 0 0
-125.745 -118.802 1150.01 0 0
-46.175 -116.324 1126.02 0 0
30.4911 -115.26 1115.72 0 0
110.016 -118.803 1150.02 0 0
-83.2916 -113.494 1128.48 0 0
-6.0916 -111.947 1113.11 0 0
71.3615 -114.168 1135.19 0 0
156.863 -120.245 1195.61 0 0
-237.461 -132.8 1357.34 0 0
-122.082 -112.038 1145.14 0 0
-42.7525 -109.287 1117.02 0 0
33.579 -109.284 1116.99 0 0
113.351 -112.707 1151.97 0 0
155.977 -91.5263 935.485 0 0
-283.749 -129.898 1365.84 0 0
-80.0366 -107.096 1126.09 0 0
-3.03812 -105.484 1109.13 0 0
74.3612 -107.812 1133.61 0 0
154.193 -109.492 1151.28 0 0
-234.356 -125.704 1360.86 0 0
-119.293 -106.081 1148.42 0 0
-39.4718 -102.589 1110.62 0 0
36.5841 -103.043 1115.52 0 0
116.728 -106.617 1154.22 0 0
155.05 -84.5131 914.927 0 0
-278.913 -121.949 1360.47 0 0
-76.5942 -100.462 1120.76 0 0
-0.00636355 -99.1023 1105.58 0 0
77.4379 -101.586 1133.29 0 0
140.673 -92.2662 1029.32 0 0
-115.637 -99.3587 1143.31 0 0
-36.358 -96.3113 1108.24 0 0
39.6106 -96.8887 1114.89 0 0
119.765 -100.209 1153.09 0 0
156.654 -79.0589 909.722 0 0
-275.392 -114.594 1361.44 0 0
-73.8434 -94.7364 1125.52 0 0
3.00227 -92.6447 1100.67 0 0
80.6534 -95.5299 1134.95 0 0
129.99 -78.4899 932.505 0 0
-111.735 -92.4649 1135.41 0 0
-33.104 -89.6442 1100.77 0 0
42.7031 -90.8894 1116.06 0 0
-272.821 -107.605 1367.21 0 0
-165.498 -99.2713 1261.32 0 0
-70.1152 -87.7677 1115.16 0 0
6.0346 -86.9693 1105.01 0 0
83.3094 -88.8493 1128.9 0 0
130.118 -72.0512 915.468 0 0
-108.695 -86.3088 1136.08 0 0
-30.0057 -83.3777 1097.5 0 0
45.4245 -84.178 1108.03 0 0
-269.437 -100.262 1369 0 0
-155.813 -88.8203 1212.77 0 0
-66.8209 -81.3715 1111.07 0 0
9.03731 -80.7695 1102.85 0 0
86.0037 -82.3031 1123.79 0 0
132.008 -66.737 911.242 0 0
-307.989 -94.5692 1341.33 0 0
-105.399 -79.9535 1134.03 0 0
-27.0325 -77.4547 1098.59 0 0
48.2295 -77.7598 1102.91 0 0
123.048 -77.4137 1098 0 0
-266.424 -93.0324 1372.76 0 0
-151.695 -81.7573 1206.38 0 0
-63.4518 -74.9055 1105.28 0 0
11.9942 -74.3831 1097.57 0 0
88.6906 -75.8304 1118.93 0 0
134.007 -61.5296 907.911 0 0
-303.363 -86.9614 1337.11 0 0
-101.774 -73.3751 1128.2 0 0
-23.8781 -70.9984 1091.66 0 0
51.286 -71.7888 1103.81 0 0
-263.185 -85.6949 1375.44 0 0
-148.481 -75.2047 1207.07 0 0
-60.0224 -68.3979 1097.82 0 0
14.9701 -68.2718 1095.79 0 0
92.3945 -70.2038 1126.8 0 0
135.852 -56.3023 903.676 0 0
-298.025 -79.2043 1329.59 0 0
-98.6862 -67.2046 1128.16 0 0
-20.8105 -64.7702 1087.29 0 0
54.5733 -66.0814 1109.3 0 0
109.508 -55.5034 931.731 0 0
-260.322 -78.4458 1380.19 0 0
-141.443 -66.8391 1175.98 0 0
-57.0434 -62.4202 1098.24 0 0
17.9558 -62.2484 1095.21 0 0
96.0253 -64.4132 1133.3 0 0
137.343 -50.9985 897.279 0 0
-293.522 -71.7233 1325.67 0 0
-94.3936 -60.2653 1113.89 0 0
-17.7871 -58.6566 1084.16 0 0
57.3408 -59.7412 1104.21 0 0
110.73 -49.8136 920.713 0 0
-257.067 -71.0436 1382.98 0 0
-138.593 -60.5693 1179.08 0 0
-54.2208 -56.6035 1101.88 0 0
20.9101 -56.1552 1093.15 0 0
99.1047 -58.2068 1133.09 0 0
139.339 -45.9424 894.345 0 0
-289.843 -64.4636 1325.42 0 0
-91.0359 -53.9902 1110.08 0 0
-14.8347 -52.7693 1084.97 0 0
60.7124 -54.0191 1110.67 0 0
112.107 -44.3298 911.452 0 0
-328.602 -59.9799 1306.67 0 0
-253.621 -63.5668 1384.8 0 0
-135.364 -54.121 1179.03 0 0
-51.2566 -50.6268 1102.91 0 0
23.8935 -50.1693 1092.94 0 0
95.8367 -48.7729 1062.52 0 0
141.355 -40.9293 891.646 0 0
-87.8741 -47.8521 1108.47 0 0
-11.8376 -46.7138 1082.1 0 0
63.5561 -47.8026 1107.32 0 0
113.266 -38.8894 900.851 0 0
-321.14 -52.2042 1291.03 0 0
-250.491 -56.143 1388.43 0 0
-133.012 -47.9895 1186.8 0 0
-47.8599 -44.2442 1094.17 0 0
26.8013 -44.0634 1089.7 0 0
93.1444 -40.5291 1002.3 0 0
-84.6279 -41.6858 1105.64 0 0
-8.84913 -40.6574 1078.37 0 0
66.3726 -41.6172 1103.82 0 0
114.999 -33.7505 895.174 0 0
-313.698 -44.5901 1275.12 0 0
-128.882 -41.2181 1178.69 0 0
-44.473 -37.9248 1084.52 0 0
29.7219 -38.0318 1087.58 0 0
89.9829 -32.8925 940.611 0 0
-81.1822 -35.4564 1099.9 0 0
-5.90571 -34.787 1079.14 0 0
69.2909 -35.532 1102.25 0 0
-307.661 -37.3098 1264.63 0 0
-124.939 -34.5749 1171.93 0 0
-41.5249 -32.0085 1084.94 0 0
32.6397 -32.0322 1085.75 0 0
92.1623 -27.6329 936.63 0 0
-77.9239 -29.3485 1096.36 0 0
-2.94101 -28.7414 1073.68 0 0
72.6646 -29.6534 1107.75 0 0
-302.253 -30.2012 1256.52 0 0
-118.343 -27.3831 1139.27 0 0
-38.427 -25.9878 1081.22 0 0
35.601 -26.0918 1085.55 0 0
95.2407 -22.6356 941.754 0 0
-75.119 -23.4147 1099.17 0 0
-0.00618369 -22.8857 1074.34 0 0
74.0493 -23.0852 1083.7 0 0
-298.42 -23.3009 1254.85 0 0
-114.336 -20.9909 1130.44 0 0
-35.4074 -20.0406 1079.27 0 0
38.5667 -20.1564 1085.5 0 0
96.9678 -17.3357 933.597 0 0
-329.758 -19.2961 1218.55 0 0
-270.357 -21.1647 1336.55 0 0
-177.229 -20.9527 1323.16 0 0
-72.4242 -17.4805 1103.89 0 0
2.93734 -17.0525 1076.86 0 0
70.2406 -15.6519 988.421 0 0
-294.883 -16.4348 1254.39 0 0
-111.145 -14.7975 1129.42 0 0
-32.4155 -14.1222 1077.88 0 0
41.435 -14.1883 1082.92 0 0
96.7964 -11.8972 908.05 0 0
-329.463 -12.752 1229.88 0 0
-268.902 -13.9722 1347.57 0 0
-166.844 -13.1842 1271.57 0 0
-68.4721 -11.2915 1089.02 0 0
5.86597 -11.1371 1074.14 0 0
69.5822 -9.77628 942.887 0 0
-292.274 -9.60423 1257.92 0 0
-107.503 -8.57882 1123.62 0 0
-29.4574 -8.22629 1077.44 0 0
44.363 -8.26214 1082.14 0 0
97.8723 -6.83477 895.188 0 0
-316.627 -5.85322 1194.15 0 0
-160.208 -6.11216 1246.98 0 0
-65.1343 -5.30852 1083.02 0 0
8.77708 -5.25003 1071.09 0 0
72.2073 -4.6247 943.512 0 0
-290.053 -2.73886 1263.22 0 0
-103.25 -2.4086 1110.9 0 0
-26.4712 -2.33244 1075.77 0 0
47.3838 -2.34936 1083.58 0 0
99.8224 -1.93129 890.755 0 0
-311.579 0.671186 1187.35 0 0
-152.666 0.686309 1214.1 0 0
-62.3002 0.613454 1085.22 0 0
11.7267 0.606596 1073.09 0 0
78.626 0.560732 991.954 0 0
-100.132 3.66158 1110 0 0
-23.5362 3.54952 1076.03 0 0
50.3576 3.57525 1083.83 0 0
102.221 2.9373 890.438 0 0
-306.018 7.10849 1178.43 0 0
-146.783 7.19792 1193.26 0 0
-59.1693 6.52807 1082.21 0 0
14.6434 6.46576 1071.88 0 0
87.862 6.46359 1071.53 0 0
-352.015 10.5497 1203.54 0 0
-96.6045 9.68035 1104.36 0 0
-20.6047 9.4365 1076.54 0 0
53.299 9.49662 1083.4 0 0
-301.928 13.5119 1175.05 0 0
-141.659 13.5432 1177.78 0 0
-56.0781 12.4149 1079.65 0 0
17.5697 12.323 1071.66 0 0
85.8594 11.6522 1013.32 0 0
-359.596 17.6633 1241.06 0 0
-93.1137 15.6384 1098.79 0 0
-17.6506 15.3119 1075.84 0 0
56.2615 15.4197 1083.42 0 0
-298.572 19.9262 1174.48 0 0
-137.932 19.9087 1173.46 0 0
-53.0557 18.2926 1078.2 0 0
20.4828 18.1672 1070.81 0 0
81.3311 15.7762 929.88 0 0
-357.03 24.5047 1243.94 0 0
-269.657 24.2914 1233.11 0 0
-89.7146 21.5503 1093.96 0 0
-14.7375 21.2331 1077.86 0 0
59.1747 21.3253 1082.54 0 0
-294.543 26.2739 1171.23 0 0
-133.718 26.1271 1164.69 0 0
-50.1318 24.1983 1078.71 0 0
23.3988 24.01 1070.31 0 0
80.5361 20.0299 892.887 0 0
-339.025 30.0122 1192.56 0 0
-270.528 31.527 1252.75 0 0
-86.5067 27.4618 1091.22 0 0
-11.733 26.9917 1072.54 0 0
62.4793 27.3949 1088.56 0 0
-291.314 32.6738 1171.12 0 0
-128.663 32.0287 1148 0 0
-47.3788 30.2202 1083.18 0 0
26.385 29.9299 1072.77 0 0
82.3031 24.7089 885.638 0 0
-332.881 36.218 1182.32 0 0
-181.349 38.3445 1251.74 0 0
-83.6875 33.4928 1093.36 0 0
-8.80507 32.8691 1073 0 0
65.3665 33.3009 1087.09 0 0
-287.394 38.9786 1168.2 0 0
-124.994 38.1425 1143.14 0 0
-44.2787 36.0283 1079.78 0 0
29.2754 35.7435 1071.24 0 0
-327.806 42.443 1175.71 0 0
-175.627 44.6033 1235.55 0 0
-80.2561 39.2535 1087.36 0 0
-5.84341 38.5458 1067.75 0 0
68.1026 39.1087 1083.35 0 0
-283.914 45.3193 1167.02 0 0
-120.219 43.7907 1127.66 0 0
-41.3512 41.9557 1080.4 0 0
32.1965 41.5907 1071 0 0
-323.69 48.7345 1172.44 0 0
-272.81 54.585 1313.19 0 0
-168.275 50.1728 1207.04 0 0
-77.1402 45.1139 1085.34 0 0
-2.93512 44.54 1071.53 0 0
71.6067 45.3752 1091.62 0 0
726.126 63.4608 1526.72 0 0
-281.291 51.8036 1169.38 0 0
-116.286 49.5924 1119.46 0 0
-38.3937 47.8568 1080.28 0 0
-319.317 54.9431 1168.17 0 0
-162.099 55.7819 1186 0 0
-74.1427 51.0261 1084.89 0 0
-0.00614967 50.2519 1068.43 0 0
74.9989 51.624 1097.6 0 0
727.863 71.5677 1521.63 0 0
-277.872 58.1498 1168.44 0 0
-112.889 55.5469 1116.14 0 0
-35.294 53.5398 1075.81 0 0
38.3147 53.6693 1078.41 0 0
-315.725 61.2519 1166.69 0 0
-158.618 62.1716 1184.21 0 0
-70.9988 56.8142 1082.17 0 0
2.902 55.8557 1063.91 0 0
72.6924 53.7039 1022.92 0 0
729.176 79.5756 1515.71 0 0
-275.658 64.7678 1172.61 0 0
-109.561 61.4933 1113.32 0 0
-32.3491 59.4134 1075.67 0 0
41.237 59.5281 1077.74 0 0
-311.974 67.5085 1164.6 0 0
-155.444 68.6734 1184.69 0 0
-68.284 62.9545 1086.03 0 0
5.84156 62.0056 1069.67 0 0
68.9475 54.1581 934.287 0 0
-273.791 71.5278 1178.37 0 0
-106.039 67.2757 1108.32 0 0
-29.3431 65.1479 1073.26 0 0
44.5007 65.8904 1085.5 0 0
-308.928 73.908 1165.11 0 0
-247.399 79.7386 1257.03 0 0
-151.098 74.6029 1176.07 0 0
-65.4145 68.9962 1087.68 0 0
8.78486 68.0039 1072.04 0 0
-272.368 78.4881 1186.2 0 0
-103.19 73.4633 1110.26 0 0
-26.4869 71.2238 1076.41 0 0
47.4899 71.8582 1086 0 0
-304.892 80.054 1161.87 0 0
-147.379 80.756 1172.06 0 0
-62.1415 74.5824 1082.46 0 0
11.6876 73.6907 1069.51 0 0
-275.63 87.0265 1214.87 0 0
-100.229 79.591 1111.07 0 0
-23.5254 77.0454 1075.54 0 0
50.5858 77.9916 1088.74 0 0
-301.705 86.4026 1161.83 0 0
-143.324 86.649 1165.14 0 0
-59.1725 80.4863 1082.27 0 0
14.6464 79.7302 1072.1 0 0
-352.108 92.8192 1203.86 0 0
-267.083 91.8702 1191.55 0 0
-96.9909 85.4882 1108.78 0 0
-20.5248 82.6808 1072.36 0 0
53.8664 84.4209 1094.93 0 0
-298.607 92.7784 1162.13 0 0
-139.874 92.8426 1162.93 0 0
-56.1291 86.2722 1080.63 0 0
17.6839 86.1118 1078.62 0 0
92.9368 87.5668 1096.85 0 0
-343.542 97.8973 1185.65 0 0
-262.816 98.0077 1186.99 0 0
-93.8815 91.4731 1107.85 0 0
-17.6025 88.5881 1072.91 0 0
56.8886 90.4534 1095.5 0 0
-295.957 99.3082 1164.2 0 0
-136.992 99.4155 1165.46 0 0
-53.3987 92.5671 1085.17 0 0
20.814 92.8192 1088.13 0 0
97.3401 94.9335 1112.92 0 0
-340.732 104.511 1187.15 0 0
-258.552 104.087 1182.33 0 0
-90.858 97.5347 1107.91 0 0
-14.6407 94.2661 1070.78 0 0
60.179 96.9189 1100.91 0 0
-292.609 105.613 1163.54 0 0
-132.969 105.125 1158.17 0 0
-50.6011 98.8291 1088.8 0 0
23.871 99.1109 1091.91 0 0
100.208 100.843 1110.99 0 0
-335.927 110.488 1181.67 0 0
-183.951 116.521 1246.19 0 0
-88.0915 103.9 1111.21 0 0
-11.7068 100.06 1070.14 0 0
63.3269 103.163 1103.33 0 0
-288.875 111.76 1161.32 0 0
-129.438 111.143 1154.9 0 0
-47.7172 104.984 1090.91 0 0
26.8059 104.886 1089.89 0 0
104.042 107.742 1119.56 0 0
-330.815 116.286 1174.98 0 0
-180.108 123.035 1243.17 0 0
-84.9483 109.838 1109.83 0 0
-8.82475 106.431 1075.4 0 0
66.4374 109.351 1104.9 0 0
-284.461 117.596 1156.28 0 0
-126.069 117.259 1152.96 0 0
-44.7741 111.044 1091.86 0 0
29.6459 110.326 1084.8 0 0
107.225 113.992 1120.84 0 0
-327.756 122.767 1175.53 0 0
-173.095 127.176 1217.74 0 0
-82.0942 116.16 1112.26 0 0
-5.92022 112.977 1081.79 0 0
69.4722 115.415 1105.13 0 0
-281.485 123.999 1157.04 0 0
-122.383 123.025 1147.95 0 0
-41.7039 116.774 1089.62 0 0
32.7959 116.915 1090.94 0 0
109.866 119.66 1116.55 0 0
758.31 159.845 1491.52 0 0
-325.332 129.508 1178.39 0 0
-166.354 131.143 1193.26 0 0
-78.8675 121.952 1109.64 0 0
-2.98373 119.714 1089.27 0 0
72.9668 122.251 1112.36 0 0
-278.811 130.553 1159.07 0 0
-118.663 128.67 1142.35 0 0
-38.9137 123.327 1094.92 0 0
35.8433 123.104 1092.94 0 0
766.859 168.985 1500.27 0 0
-325.056 137.193 1189.16 0 0
-162.242 136.949 1187.05 0 0
-75.7062 127.802 1107.76 0 0
-0.0062995 126.267 1094.46 0 0
76.1542 128.58 1114.51 0 0
-276.509 137.32 1162.71 0 0
-114.837 134.094 1135.4 0 0
-35.9771 129.515 1096.63 0 0
38.9246 129.391 1095.58 0 0
-322.943 144.202 1193.36 0 0
-158.306 142.814 1181.88 0 0
-72.7751 134.036 1109.24 0 0
2.9824 132.12 1093.38 0 0
79.1504 134.587 1113.8 0 0
777.97 195.409 1617.14 0 0
-363.646 148.099 1198.5 0 0
-274.3 144.185 1166.83 0 0
-110.909 139.265 1127.02 0 0
-32.9563 135.415 1095.86 0 0
42.0474 135.794 1098.92 0 0
-313.511 147.817 1170.33 0 0
-154.124 148.36 1174.63 0 0
-69.6613 139.936 1107.94 0 0
5.99036 138.544 1096.91 0 0
81.5376 139.551 1104.89 0 0
758.983 198.139 1568.76 0 0
-376.275 161.476 1251.4 0 0
-274.059 152.202 1179.52 0 0
-107.887 145.506 1127.63 0 0
-30.0259 141.713 1098.24 0 0
45.3441 142.723 1106.07 0 0
-309.331 153.727 1166.63 0 0
-150.15 153.999 1168.69 0 0
-66.8461 146.46 1111.48 0 0
9.00877 144.863 1099.36 0 0
84.5743 145.62 1105.11 0 0
767.001 207.725 1576.42 0 0
-104.67 151.475 1126.18 0 0
-27.0692 147.964 1100.08 0 0
48.6415 149.613 1112.34 0 0
-305.925 159.991 1165.81 0 0
-146.215 159.58 1162.81 0 0
-63.8209 152.568 1111.71 0 0
12.012 150.851 1099.2 0 0
87.3504 151.238 1102.02 0 0
-101.314 157.2 1123.1 0 0
-24.1542 154.567 1104.28 0 0
51.5809 155.389 1110.16 0 0
-303.094 166.56 1167.18 0 0
-142.079 164.826 1155.02 0 0
-60.8545 158.834 1113.04 0 0
15.0124 156.816 1098.89 0 0
89.9476 156.54 1096.96 0 0
754.655 218.881 1533.81 0 0
-195.933 182.887 1257.5 0 0
-98.3131 163.456 1123.89 0 0
-21.1247 160.52 1103.71 0 0
54.5247 161.19 1108.32 0 0
-301.152 173.661 1172.03 0 0
-138.16 170.201 1148.68 0 0
-57.8206 164.943 1113.2 0 0
18.0713 163.322 1102.26 0 0
92.1349 161.119 1087.39 0 0
-183.063 180.463 1195.88 0 0
-95.2107 169.546 1123.53 0 0
-18.1279 166.738 1104.93 0 0
57.4807 167.036 1106.9 0 0
451.711 361.424 2395.06 0 0
569.233 334.322 2215.46 0 0
670.484 311.058 2061.3 0 0
-301.855 182.429 1187.4 0 0
-134.371 175.633 1143.16 0 0
-55.0124 171.762 1117.97 0 0
21.1936 170.226 1107.97 0 0
94.7191 166.381 1082.95 0 0
511.629 350.705 2282.68 0 0
619.519 325.438 2118.22 0 0
737.352 313.976 2043.62 0 0
-178.795 185.962 1189.24 0 0
-92.0863 175.586 1122.88 0 0
-15.1374 173.119 1107.11 0 0
59.9318 171.443 1096.39 0 0
446.3 364.745 2332.56 0 0
568.198 342.163 2188.15 0 0
671.831 320.283 2048.23 0 0
-130.981 181.515 1140.86 0 0
-51.8542 177.523 1115.77 0 0
24.1641 175.861 1105.32 0 0
97.2876 171.611 1078.61 0 0
510.722 358.172 2251.18 0 0
624.451 336.556 2115.31 0 0
744.425 325.799 2047.71 0 0
-174.035 190.809 1179.01 0 0
-88.9233 181.534 1121.7 0 0
-12.0752 178.639 1103.82 0 0
62.6022 176.517 1090.7 0 0
440.052 366.97 2267.52 0 0
569.099 350.993 2168.79 0 0
676.953 331.247 2046.79 0 0
-127.533 187.268 1137.91 0 0
-48.9154 184.041 1118.31 0 0
27.2253 182.17 1106.94 0 0
99.6861 176.534 1072.69 0 0
502.065 359.863 2186.67 0 0
629.539 347.737 2112.99 0 0
751.536 337.674 2051.84 0 0
-169.774 196.055 1171.85 0 0
-85.8405 187.63 1121.48 0 0
-9.03839 184.274 1101.43 0 0
65.2463 181.541 1085.09 0 0
452.547 384.719 2299.51 0 0
571.86 360.85 2156.85 0 0
681.477 341.9 2043.58 0 0
-124.096 192.98 1134.92 0 0
-45.9191 190.405 1119.78 0 0
30.2192 188.024 1105.78 0 0
102.527 182.236 1071.74 0 0
520.166 380.69 2238.85 0 0
631.647 357.213 2100.78 0 0
754.885 347.85 2045.72 0 0
778.459 261.762 1539.43 0 0
-165.341 200.966 1163.19 0 0
-82.6756 193.528 1120.14 0 0
-6.02997 190.367 1101.84 0 0
67.9174 186.662 1080.4 0 0
461.482 399.584 2312.79 0 0
583.704 376.478 2179.05 0 0
684.121 351.56 2034.83 0 0
-120.997 199.19 1134.96 0 0
-42.8557 196.515 1119.71 0 0
33.0193 192.77 1098.37 0 0
105.138 187.528 1068.5 0 0
526.455 393.056 2239.57 0 0
634.631 367.103 2091.69 0 0
761.018 359.289 2047.17 0 0
783.313 270.401 1540.7 0 0
-161.537 206.527 1158.71 0 0
-79.7273 199.936 1121.74 0 0
-3.02408 196.776 1104.01 0 0
70.5599 191.724 1075.66 0 0
469.205 413.463 2319.72 0 0
583.638 384.424 2156.8 0 0
685.949 360.72 2023.81 0 0
757.613 283.92 1592.93 0 0
-117.562 204.816 1131.75 0 0
-39.8385 202.858 1120.94 0 0
35.673 196.851 1087.74 0 0
108.102 193.446 1068.93 0 0
531.789 404.7 2236.26 0 0
638.187 377.26 2084.63 0 0
766.626 370.486 2047.21 0 0
-157.336 211.472 1151.15 0 0
-76.6818 206.124 1122.04 0 0
-0.00636883 203.27 1106.5 0 0
73.2111 196.828 1071.43 0 0
473.465 424.279 2309.57 0 0
586.688 394.302 2146.39 0 0
689.481 370.709 2017.95 0 0
-114.143 210.401 1128.53 0 0
-36.8543 209.439 1123.37 0 0
38.4906 201.981 1083.36 0 0
110.543 198.427 1064.3 0 0
534.478 414.271 2222.03 0 0
640.105 386.374 2072.39 0 0
775.079 383.09 2054.78 0 0
-153.73 217.116 1147.72 0 0
-73.678 212.441 1123 0 0
3.02284 209.643 1108.21 0 0
75.7269 201.586 1065.62 0 0
478.387 435.639 2302.87 0 0
591.919 405.601 2144.08 0 0
693.325 380.822 2013.1 0 0
-110.752 215.975 1125.42 0 0
-33.8561 216.043 1125.78 0 0
41.3679 207.482 1081.17 0 0
112.857 203.173 1058.71 0 0
539.989 425.975 2219.71 0 0
645.205 397.357 2070.58 0 0
780.956 394.455 2055.46 0 0
-149.815 222.237 1141.79 0 0
-70.5588 218.426 1122.21 0 0
6.07359 216.469 1112.15 0 0
78.3056 206.531 1061.1 0 0
483.352 446.999 2296.55 0 0
595.155 415.49 2134.67 0 0
696.979 390.791 2007.77 0 0
-202.077 243.18 1232.09 0 0
-107.672 222.119 1125.38 0 0
-30.8047 222.384 1126.72 0 0
44.1863 212.733 1077.83 0 0
115.687 208.846 1058.13 0 0
543.286 435.888 2208.45 0 0
648.159 406.977 2061.97 0 0
786.322 405.562 2054.81 0 0
-146.351 227.945 1139.12 0 0
-67.5635 224.802 1123.41 0 0
9.04361 220.84 1103.61 0 0
80.707 211.027 1054.57 0 0
487.932 457.96 2288.59 0 0
600.508 426.817 2132.96 0 0
700.77 400.797 2002.92 0 0
-197.758 248.719 1226.19 0 0
-104.758 228.626 1127.13 0 0
-27.7261 228.553 1126.77 0 0
46.779 216.986 1069.74 0 0
425.197 478.084 2356.96 0 0
548.526 447.311 2205.25 0 0
652.411 417.364 2057.61 0 0
792.735 417.214 2056.87 0 0
-142.68 233.261 1134.69 0 0
-64.5465 231.136 1124.35 0 0
11.961 225.005 1094.53 0 0
83.2944 216.026 1050.85 0 0
492.37 468.741 2280.17 0 0
603.247 436.242 2122.08 0 0
706.359 411.813 2003.25 0 0
892.539 435.883 2120.33 0 0
-192.238 252.574 1212.51 0 0
-101.502 234.384 1125.19 0 0
-24.6377 234.633 1126.39 0 0
49.4322 221.62 1063.91 0 0
431.05 490.298 2353.74 0 0
550.549 456.049 2189.32 0 0
655.173 426.748 2048.66 0 0
797.198 427.837 2053.89 0 0
-139.588 239.482 1134.77 0 0
-61.479 237.305 1124.46 0 0
14.8583 229.53 1087.61 0 0
86.0393 221.443 1049.3 0 0
496.558 479.234 2270.82 0 0
607.368 446.608 2116.23 0 0
711.317 422.457 2001.79 0 0
900.736 448.67 2126 0 0
-186.524 255.91 1197.11 0 0
-98.4352 240.556 1125.29 0 0
-21.5323 240.495 1125 0 0
52.2342 226.975 1061.76 0 0
435.092 500.415 2340.87 0 0
554.654 466.438 2181.93 0 0
657.88 436.03 2039.69 0 0
806.405 441.03 2063.08 0 0
-135.617 244.119 1127.54 0 0
-58.4337 243.57 1125 0 0
17.7391 234.258 1081.99 0 0
88.988 227.385 1050.25 0 0
499.977 488.921 2258.23 0 0
611.872 457.221 2111.81 0 0
720.277 435.51 2011.53 0 0
904.63 459.319 2121.5 0 0
-181.575 260.053 1186.16 0 0
-95.3258 246.621 1124.89 0 0
-18.5458 247.829 1130.4 0 0
54.8599 231.612 1056.43 0 0
441.51 513.235 2340.98 0 0
558.066 476.188 2172 0 0
661.385 445.786 2033.32 0 0
811.887 452.221 2062.68 0 0
-132.449 250.122 1126.81 0 0
-55.4086 249.946 1126.02 0 0
20.5793 238.812 1075.86 0 0
91.8484 233.1 1050.13 0 0
504.348 499.482 2250.19 0 0
614.018 466.013 2099.41 0 0
724.852 445.939 2008.97 0 0
912.942 472.217 2127.36 0 0
-177.235 264.897 1178.86 0 0
-92.1348 252.453 1123.48 0 0
-15.4054 253.179 1126.71 0 0
57.5334 236.507 1052.51 0 0
445.421 523.11 2327.97 0 0
563.608 487.72 2170.47 0 0
666.091 456.318 2030.73 0 0
821.922 465.99 2073.77 0 0
-129.162 255.871 1125 0 0
-52.2799 255.853 1124.93 0 0
23.4252 243.706 1071.52 0 0
94.2489 237.656 1044.92 0 0
509.163 510.445 2244.3 0 0
617.29 475.59 2091.06 0 0
729.619 456.468 2006.98 0 0
919.966 484.484 2130.16 0 0
-172.651 269.22 1169.64 0 0
-88.8448 257.958 1120.71 0 0
-12.2387 257.511 1118.77 0 0
60.0583 240.849 1046.38 0 0
450.075 533.81 2319.16 0 0
566.897 497.267 2160.4 0 0
668.573 465.284 2021.45 0 0
829.493 478.425 2078.54 0 0
-125.531 260.868 1120.05 0 0
-49.3293 262.665 1127.77 0 0
26.2144 248.241 1065.84 0 0
96.9475 242.973 1043.22 0 0
513.333 520.721 2235.75 0 0
621.354 485.73 2085.51 0 0
738.188 469.4 2015.4 0 0
927.781 497.197 2134.74 0 0
-168.389 273.881 1162.28 0 0
-85.618 263.582 1118.58 0 0
-9.12357 261.987 1111.81 0 0
62.7793 246.023 1044.06 0 0
455.396 545.27 2313.99 0 0
569.692 506.314 2148.67 0 0
674.421 476.563 2022.42 0 0
834.405 489.336 2076.62 0 0
-122.375 266.785 1119.19 0 0
-46.2256 268.708 1127.26 0 0
28.9771 252.753 1060.32 0 0
99.9049 248.94 1044.33 0 0
517.746 531.201 2228.44 0 0
626.298 496.532 2083 0 0
744.443 480.9 2017.42 0 0
932.013 507.993 2131.08 0 0
-164.338 278.752 1156.13 0 0
-82.77 270.382 1121.42 0 0
-6.02486 265.437 1100.91 0 0
65.5406 251.376 1042.59 0 0
460.063 555.916 2305.68 0 0
573.651 516.336 2141.52 0 0
676.808 485.366 2013.07 0 0
839.143 500.129 2074.3 0 0
-119.098 272.403 1117.14 0 0
-43.0851 274.493 1125.71 0 0
31.7522 257.55 1056.22 0 0
102.618 254.298 1042.89 0 0
520.409 539.827 2213.85 0 0
628.622 505.211 2071.89 0 0
749.924 491.907 2017.33 0 0
-160.141 283.24 1148.7 0 0
-79.6276 276.245 1120.33 0 0
-2.99171 269.305 1092.19 0 0
68.149 256.168 1038.91 0 0
464.247 565.938 2295.2 0 0
577.858 526.543 2135.44 0 0
678.939 493.919 2003.13 0 0
845.373 511.809 2075.68 0 0
-116.17 278.814 1118.35 0 0
-40.0992 281.287 1128.27 0 0
34.3952 261.469 1048.78 0 0
105.216 259.377 1040.39 0 0
525.377 550.795 2209.3 0 0
632.963 515.461 2067.57 0 0
757.81 504.514 2023.66 0 0
-156.472 288.544 1144.83 0 0
-76.4843 282.071 1119.15 0 0
-0.00624019 273.251 1084.15 0 0
71.0102 261.927 1039.22 0 0
469.57 577.317 2290.57 0 0
582.122 536.768 2129.68 0 0
682.673 503.585 1998.03 0 0
850.527 522.837 2074.41 0 0
-113.138 284.989 1118.59 0 0
-37.0343 287.603 1128.86 0 0
37.2453 267.083 1048.31 0 0
402.451 595.436 2337.11 0 0
529.86 561.224 2202.83 0 0
636.041 524.641 2059.24 0 0
762.742 515.173 2022.07 0 0
-152.591 293.358 1139.22 0 0
-73.3851 288.032 1118.54 0 0
2.94621 278.139 1080.12 0 0
73.6355 266.828 1036.19 0 0
472.096 585.21 2272.59 0 0
584.992 545.658 2118.99 0 0
686.384 513.2 1992.95 0 0
863.847 538.95 2092.95 0 0
-110.138 291.258 1119.19 0 0
-34.0004 294.223 1130.58 0 0
39.9138 271.474 1043.16 0 0
411.205 611.732 2350.63 0 0
531.493 568.573 2184.79 0 0
637.972 532.81 2047.37 0 0
771.136 528.191 2029.62 0 0
-149.21 299.049 1137.18 0 0
-70.2369 293.768 1117.09 0 0
5.86194 282.277 1073.4 0 0
76.2731 271.799 1033.55 0 0
476.573 595.465 2264.35 0 0
589.298 555.84 2113.66 0 0
689.643 522.437 1986.64 0 0
866.519 548.462 2085.61 0 0
-106.887 296.844 1117.18 0 0
-30.8804 300.115 1129.49 0 0
42.7644 277.172 1043.14 0 0
416.493 622.88 2344.23 0 0
536.561 579.54 2181.11 0 0
642.705 543.273 2044.62 0 0
773.393 537.001 2021.02 0 0
-145.808 304.653 1134.89 0 0
-67.1116 299.554 1115.9 0 0
8.72755 285.902 1065.05 0 0
78.8378 276.535 1030.15 0 0
480.859 605.447 2255.42 0 0
593.987 566.357 2109.8 0 0
691.68 530.693 1976.94 0 0
874.565 561.369 2091.21 0 0
-103.714 302.602 1115.89 0 0
-27.7087 305.36 1126.06 0 0
45.407 281.58 1038.37 0 0
421.658 633.828 2337.34 0 0
542.424 591.356 2180.72 0 0
646.622 553.021 2039.35 0 0
779.222 548.264 2021.81 0 0
-142.432 310.26 1132.71 0 0
-64.1882 306.26 1118.11 0 0
11.6011 290.78 1061.6 0 0
81.5869 281.936 1029.31 0 0
485.551 615.909 2248.59 0 0
597.226 575.455 2100.9 0 0
698.075 542.271 1979.75 0 0
879.17 572.078 2088.57 0 0
-100.433 307.996 1113.34 0 0
-24.5979 311.102 1124.57 0 0
48.0707 286.217 1034.61 0 0
425.895 643.355 2325.59 0 0
546.91 601.655 2174.85 0 0
649.262 561.631 2030.17 0 0
788.032 561.658 2030.27 0 0
-139.056 315.817 1130.44 0 0
-61.1077 312.248 1117.67 0 0
14.4275 295.042 1056.08 0 0
84.3645 287.441 1028.87 0 0
489.319 625.163 2237.72 0 0
600.272 584.315 2091.51 0 0
702.28 552.146 1976.36 0 0
-97.6306 314.859 1116.09 0 0
-21.3876 315.241 1117.45 0 0
50.7844 291.217 1032.29 0 0
430.482 653.384 2316.07 0 0
551.029 611.518 2167.67 0 0
654.359 572.335 2028.77 0 0
793.955 573.027 2031.23 0 0
-135.672 321.302 1128 0 0
-58.0264 318.215 1117.16 0 0
17.1519 297.995 1046.17 0 0
87.0645 292.688 1027.55 0 0
494.269 635.895 2232.45 0 0
605.24 595.013 2088.92 0 0
708.186 563.351 1977.77 0 0
-94.7245 321.451 1117.8 0 0
-18.207 319.137 1109.75 0 0
53.4565 296.032 1029.41 0 0
435.196 663.58 2307.5 0 0
553.657 619.678 2154.84 0 0
656.581 580.487 2018.56 0 0
801.163 585.34 2035.43 0 0
-132.488 327.22 1127.14 0 0
-55.1017 325.083 1119.78 0 0
19.9771 303.191 1044.37 0 0
89.9493 298.558 1028.41 0 0
499.38 646.817 2228.03 0 0
608.305 603.808 2079.88 0 0
712.575 573.345 1974.95 0 0
900.168 608.951 2097.6 0 0
-91.4635 326.827 1115.29 0 0
-15.0068 321.63 1097.55 0 0
56.314 301.894 1030.21 0 0
440.079 674.013 2300.05 0 0
558.23 629.973 2149.77 0 0
661.452 590.945 2016.59 0 0
807.454 597.006 2037.27 0 0
-128.804 331.827 1121.89 0 0
-52.0161 331.047 1119.25 0 0
22.759 307.916 1041.05 0 0
92.7534 304.157 1028.34 0 0
504.353 657.54 2223.1 0 0
611.735 612.919 2072.24 0 0
721.578 587.075 1984.86 0 0
-179.022 362.031 1212.8 0 0
-88.3228 332.578 1114.13 0 0
-11.9528 326.159 1092.63 0 0
58.7652 305.628 1023.85 0 0
443.827 682.681 2286.97 0 0
562.008 639.339 2141.77 0 0
663.934 599.234 2007.42 0 0
814.188 609.015 2040.19 0 0
-840.328 798.346 2650.18 0 0
-125.719 337.911 1121.72 0 0
-48.9755 337.295 1119.68 0 0
25.5217 312.591 1037.67 0 0
508.037 666.554 2212.68 0 0
614.127 620.938 2061.26 0 0
728.587 599.228 1989.19 0 0
764.922 458.155 1520.88 0 0
-169.772 356.209 1171.83 0 0
-85.3717 339.043 1115.36 0 0
-8.93991 331.16 1089.43 0 0
61.5207 311.008 1023.13 0 0
449.071 693.627 2281.85 0 0
565.84 648.728 2134.14 0 0
665.541 606.672 1995.79 0 0
-832.895 812.651 2649.58 0 0
-122.46 343.502 1119.96 0 0
-46.1034 344.826 1124.28 0 0
28.2446 316.991 1033.52 0 0
511.161 674.79 2200.09 0 0
620.05 632.502 2062.22 0 0
734.971 610.89 1991.75 0 0
772.803 468.728 1528.25 0 0
-168.596 367.028 1186.09 0 0
-82.2173 344.698 1113.93 0 0
-5.91562 334.492 1080.95 0 0
64.2006 316.027 1021.28 0 0
571.347 660.018 2132.92 0 0
668.704 615.473 1988.97 0 0
705.937 461.953 1492.85 0 0
-119.406 349.648 1120.03 0 0
-43.0787 351.367 1125.54 0 0
31.0309 322.238 1032.23 0 0
518.145 688.107 2204.22 0 0
622.617 640.617 2052.1 0 0
739.899 621.344 1990.36 0 0
790.812 485.576 1555.45 0 0
-165.99 374.95 1190.66 0 0
-79.2106 350.956 1114.47 0 0
-2.92275 336.013 1067.01 0 0
66.8889 321.114 1019.7 0 0
573.973 667.949 2121.08 0 0
672.814 625.114 1985.06 0 0
-116.138 355.139 1118.04 0 0
-39.9835 357.354 1125.02 0 0
33.6704 326.118 1026.68 0 0
625.825 649.343 2044.25 0 0
746.346 633.079 1993.05 0 0
-160.644 376.555 1175.35 0 0
-76.294 357.657 1116.36 0 0
-0.00611762 340.515 1062.86 0 0
69.7805 327.177 1021.23 0 0
676.414 634.253 1979.71 0 0
-112.98 360.925 1117.03 0 0
-36.9324 363.741 1125.75 0 0
36.3203 330.308 1022.28 0 0
630.938 660.022 2042.72 0 0
667.781 484.278 1498.8 0 0
-73.3462 364.275 1117.94 0 0
2.86732 342.526 1051.2 0 0
72.1619 330.88 1015.46 0 0
-109.839 366.738 1116.14 0 0
-33.948 370.909 1128.83 0 0
39.0381 335.24 1020.28 0 0
637.333 672.045 2045.32 0 0
669.383 490.643 1493.23 0 0
-154.661 390.524 1178.73 0 0
-70.1714 369.759 1116.05 0 0
5.70633 346.187 1044.9 0 0
75.0464 336.92 1016.93 0 0
678.316 464.506 1402.03 0 0
-106.884 373.174 1117.14 0 0
-30.8961 377.492 1130.07 0 0
41.7434 340.136 1018.24 0 0
-149.756 392.557 1165.63 0 0
-67.2121 376.372 1117.57 0 0
8.52403 350.319 1040.21 0 0
77.7013 341.93 1015.3 0 0
-103.88 379.465 1117.68 0 0
-27.7936 383.483 1129.52 0 0
44.4494 345.103 1016.47 0 0
772.139 502.125 1478.97 0 0
-145.216 395.244 1154.86 0 0
-64.1363 382.357 1117.2 0 0
11.3328 354.922 1037.04 0 0
80.458 347.401 1015.07 0 0
-100.548 384.517 1114.61 0 0
-24.7963 391.079 1133.64 0 0
47.2328 350.697 1016.58 0 0
773.716 508.59 1474.27 0 0
-140.894 398.262 1145.38 0 0
-61.155 388.926 1118.53 0 0
14.1073 359.059 1032.64 0 0
-97.6102 391.046 1115.86 0 0
-21.4703 393.115 1121.76 0 0
49.9015 355.47 1014.34 0 0
766.544 509.208 1453.04 0 0
-867.323 941.698 2666.35 0 0
-137.097 402.569 1139.85 0 0
-58.2298 395.94 1121.08 0 0
16.8281 362.512 1026.43 0 0
716.15 511.23 1447.51 0 0
-94.6473 397.513 1116.89 0 0
-17.9814 390.079 1096 0 0
52.6493 360.845 1013.86 0 0
709.268 546.465 1535.4 0 0
771.81 518.021 1455.48 0 0
-853.03 948.486 2644.64 0 0
-133.642 407.764 1136.96 0 0
-55.1617 402.041 1121 0 0
19.5739 367.001 1023.3 0 0
720.315 519.293 1447.93 0 0
-91.6805 403.998 1117.94 0 0
-14.7855 390.784 1081.37 0 0
55.3173 365.705 1011.97 0 0
683.691 531.704 1471.32 0 0
-855.789 974.315 2675.87 0 0
-130.074 412.521 1132.95 0 0
-52.154 408.612 1122.22 0 0
22.3249 371.826 1021.19 0 0
647.871 546.215 1500.13 0 0
711.015 517.558 1421.43 0 0
-88.4792 409.436 1116.1 0 0
-11.6584 390.952 1065.71 0 0
57.9315 370.266 1009.32 0 0
678.131 532.227 1450.82 0 0
-841.807 981.172 2654.84 0 0
-126.71 417.834 1130.57 0 0
-49.1457 415.248 1123.57 0 0
25.032 376.144 1017.76 0 0
656.56 558.318 1510.69 0 0
704.651 517.797 1401.05 0 0
-904.847 962.846 2586.13 0 0
-85.3508 415.16 1115.09 0 0
-8.64988 392.449 1054.09 0 0
60.6305 375.413 1008.33 0 0
667.138 528.313 1419.01 0 0
-123.548 423.768 1129.91 0 0
-46.066 421.312 1123.36 0 0
27.7689 381.088 1016.11 0 0
640.432 549.205 1464.37 0 0
700.069 519.218 1384.41 0 0
-82.4998 422.265 1117.76 0 0
-5.71253 394.34 1043.84 0 0
63.4474 381.29 1009.29 0 0
670.472 535.635 1417.85 0 0
-120.505 430.108 1130.34 0 0
-43.0319 427.816 1124.32 0 0
30.4716 385.696 1013.62 0 0
635.034 549.082 1443.01 0 0
701.865 525.298 1380.5 0 0
-79.3812 428.034 1116.87 0 0
-2.84854 398.546 1039.92 0 0
66.2221 386.9 1009.54 0 0
668.007 538.278 1404.52 0 0
-117.351 436.049 1129.72 0 0
-40.0773 435.252 1127.66 0 0
33.3286 392.254 1016.26 0 0
640.027 557.885 1445.38 0 0
699.383 528.121 1368.26 0 0
-76.4221 434.673 1118.24 0 0
-0.00594998 401.825 1033.73 0 0
669.674 544.19 1399.98 0 0
-114.228 442.088 1129.37 0 0
-37.024 441.764 1128.54 0 0
35.956 396.152 1012.02 0 0
638.899 561.325 1433.98 0 0
699.833 533.096 1361.86 0 0
-73.4057 441.028 1118.85 0 0
2.80902 405.935 1029.82 0 0
669.889 548.885 1392.47 0 0
-110.961 447.537 1127.54 0 0
-33.9951 448.67 1130.4 0 0
38.6074 400.493 1009.02 0 0
642.494 568.876 1433.25 0 0
707.051 543.226 1368.63 0 0
-70.2159 446.309 1116.76 0 0
5.5882 408.947 1023.27 0 0
669.274 552.845 1383.34 0 0
-107.892 453.758 1127.69 0 0
-30.9308 455.227 1131.34 0 0
41.3738 406.09 1009.22 0 0
638.681 817.565 2031.82 0 0
645.316 575.734 1430.82 0 0
-143.625 452.876 1117.9 0 0
-67.2776 453.184 1118.66 0 0
8.34743 412.672 1018.66 0 0
673.168 560.502 1383.57 0 0
-105.013 460.814 1129.87 0 0
-27.8421 461.473 1131.49 0 0
43.9911 410.289 1005.99 0 0
639.885 823.077 2018.1 0 0
649.57 583.865 1431.58 0 0
-143.99 470.159 1145.11 0 0
-64.4099 460.659 1121.97 0 0
11.1036 417.178 1016.07 0 0
679.593 570.283 1388.97 0 0
-101.807 466.454 1128.57 0 0
-24.5105 463.148 1120.57 0 0
46.7228 415.629 1005.6 0 0
658.069 595.842 1441.62 0 0
-61.3857 467.117 1122.75 0 0
13.8744 422.534 1015.59 0 0
680.341 575.299 1382.77 0 0
781.616 580.334 1394.88 0 0
-98.5564 471.829 1126.67 0 0
-21.076 461.145 1101.16 0 0
49.45 420.942 1005.16 0 0
653.488 595.953 1423.07 0 0
1003.92 705.548 1684.77 0 0
-58.2738 472.906 1121.92 0 0
16.5587 425.727 1010 0 0
682.634 581.591 1379.77 0 0
782.913 586.076 1390.41 0 0
-157.91 437.638 1031.56 0 0
-95.4334 477.771 1126.16 0 0
-17.7429 458.809 1081.47 0 0
52.0249 425.027 1001.84 0 0
648.916 595.961 1404.75 0 0
1004.66 712.02 1678.31 0 0
-137.617 499.901 1170.78 0 0
-55.368 480.436 1125.19 0 0
19.2776 430.315 1007.81 0 0
682.918 586.141 1372.76 0 0
784.157 591.749 1385.89 0 0
-92.2022 483.126 1124.3 0 0
-14.6407 460.131 1070.78 0 0
54.6537 429.642 999.833 0 0
652.3 603.219 1403.77 0 0
1008.57 720.705 1677.17 0 0
-133.921 504.431 1166.46 0 0
-52.3721 487.329 1126.91 0 0
22.0041 435.265 1006.51 0 0
686.465 593.469 1372.35 0 0
-89.1993 489.659 1125.18 0 0
-11.5074 457.775 1051.92 0 0
656.382 611.121 1404.29 0 0
1011.09 728.39 1673.76 0 0
-131.541 513.967 1173.67 0 0
-49.3792 494.365 1128.91 0 0
24.736 440.423 1005.73 0 0
688.447 599.43 1368.83 0 0
-86.1653 496.049 1125.73 0 0
-8.52097 457.558 1038.38 0 0
1029.81 747.81 1697.07 0 0
-128.794 522.252 1177.89 0 0
-46.2944 500.548 1128.93 0 0
27.4196 444.859 1003.33 0 0
683.424 599.228 1351.5 0 0
-83.0112 501.738 1124.68 0 0
-5.67705 462.779 1037.36 0 0
995.302 728.438 1632.85 0 0
-125.414 528.018 1176.39 0 0
-43.3474 508.347 1132.56 0 0
30.0108 448.084 998.297 0 0
687.455 606.915 1352.16 0 0
-1168.9 1278.86 2831.96 0 0
-185.709 601.551 1332.1 0 0
-80.023 508.434 1125.9 0 0
-2.83043 466.623 1033.31 0 0
962.041 709.541 1571.24 0 0
-121.788 532.656 1172.44 0 0
-40.3019 515.181 1133.97 0 0
32.7308 453.419 998.029 0 0
691.403 614.53 1352.65 0 0
-76.9698 514.751 1126.25 0 0
-0.00593347 471.155 1030.86 0 0
666.329 636.663 1392.99 0 0
980.379 728.567 1594.07 0 0
-118.644 539.339 1173.03 0 0
-37.2997 522.747 1136.95 0 0
35.405 458.179 996.514 0 0
683.817 611.83 1330.7 0 0
-73.9716 521.475 1127.48 0 0
2.79517 473.959 1024.74 0 0
995.867 745.615 1612.09 0 0
-115.26 544.914 1171.23 0 0
-34.3162 530.885 1141.08 0 0
38.0158 462.252 993.559 0 0
648.07 672.605 1445.69 0 0
-548.013 1285.22 2746.3 0 0
-70.8319 527.209 1126.56 0 0
5.57093 477.394 1020.11 0 0
667.742 645.895 1380.17 0 0
994.608 750.155 1602.96 0 0
-612.774 1241.43 2637.32 0 0
-111.834 550.214 1168.89 0 0
-31.2245 537.593 1142.08 0 0
40.6754 467.038 992.187 0 0
633.707 948.963 2016 0 0
663.036 692.005 1470.11 0 0
-690.081 1232.21 2602.62 0 0
-529.799 1274.47 2691.89 0 0
-67.6178 532.307 1124.32 0 0
8.31908 480.645 1015.2 0 0
-766.775 1225.46 2573.5 0 0
-598.491 1241.17 2606.51 0 0
-108.502 555.899 1167.41 0 0
-28.1229 544.228 1142.9 0 0
43.3764 472.342 991.934 0 0
507.895 1340.63 2815.37 0 0
651.531 683.75 1435.9 0 0
-844.247 1222.44 2552.52 0 0
-684.316 1248.9 2607.76 0 0
-514.928 1270.65 2653.18 0 0
-64.561 538.59 1124.6 0 0
11.0154 482.75 1008.01 0 0
599.192 1328.93 2774.87 0 0
675.846 661.532 1381.31 0 0
-757.975 1236.65 2567.52 0 0
-585.932 1243.89 2582.56 0 0
-104.909 560.139 1162.96 0 0
-24.5504 540.602 1122.4 0 0
46.1042 477.934 992.286 0 0
497.361 1308.08 2715.83 0 0
643.181 968.675 2011.16 0 0
657.927 694.208 1441.31 0 0
-827.861 1222.5 2523.83 0 0
-657.894 1227.17 2533.46 0 0
-61.6906 546.542 1128.33 0 0
13.7523 487.606 1006.66 0 0
598.783 1326.39 2738.31 0 0
-889.698 1201.12 2465.78 0 0
-731.564 1218.38 2501.22 0 0
-574.559 1248.63 2563.31 0 0
-101.455 564.96 1159.81 0 0
-20.751 528.123 1084.18 0 0
495.107 1297.56 2663.76 0 0
667.876 708.462 1454.4 0 0
-991.558 1233.97 2519.07 0 0
-814.894 1227.16 2505.18 0 0
-639.231 1218.64 2487.78 0 0
-58.7652 554.208 1131.38 0 0
16.4607 491.818 1004.02 0 0
592.594 1311.11 2676.55 0 0
-1044.27 1206.29 2448.92 0 0
-885.128 1217.58 2471.84 0 0
-706.749 1201.49 2439.17 0 0
-557.771 1240.88 2519.13 0 0
-97.5007 566.745 1150.56 0 0
-17.4855 524.984 1065.78 0 0
496.693 1297.25 2633.57 0 0
652.704 695.995 1412.95 0 0
727.951 676.201 1372.77 0 0
-794.545 1220.12 2463.32 0 0
-624.336 1216.47 2455.94 0 0
-55.9342 563.026 1136.7 0 0
19.1539 495.981 1001.34 0 0
584.756 1292.25 2608.94 0 0
-850.672 1192.27 2393.89 0 0
-698.872 1212.73 2434.96 0 0
-532.886 1213.66 2436.83 0 0
-94.7056 575.159 1154.82 0 0
-14.4431 526.104 1056.33 0 0
490.406 1276.54 2563.08 0 0
656.04 703.156 1411.82 0 0
-914.652 1180.06 2356.42 0 0
-768.836 1203.88 2403.98 0 0
-603.764 1202.29 2400.83 0 0
-52.9599 570.671 1139.56 0 0
21.8499 500.512 999.458 0 0
386.895 1222.15 2440.47 0 0
582.028 1284.75 2565.48 0 0
-977.18 1168.84 2321.34 0 0
-817.168 1166.86 2317.43 0 0
-680.195 1204.75 2392.67 0 0
-522.45 1218.18 2419.34 0 0
-91.3349 580.114 1152.12 0 0
-11.4717 528.012 1048.65 0 0
492.935 1278.94 2540.01 0 0
658.848 709.741 1409.57 0 0
-1033.5 1153.06 2277.66 0 0
-894.545 1174.99 2320.96 0 0
-748.375 1194.84 2360.18 0 0
-587.738 1196.16 2362.78 0 0
-50.0473 579.242 1144.18 0 0
24.5671 505.673 998.86 0 0
395.59 1241.84 2453.02 0 0
570.629 1258.18 2485.29 0 0
-827.968 1204.46 2366.4 0 0
-676.043 1222.15 2401.15 0 0
-503.127 1201.07 2359.73 0 0
-88.0284 585.366 1150.07 0 0
-8.60977 534.024 1049.2 0 0
304.686 1207.17 2371.73 0 0
492.454 1273.62 2502.29 0 0
662.853 717.611 1409.89 0 0
-728.138 1185.3 2316.33 0 0
-579.705 1205.8 2356.39 0 0
-47.1088 587.856 1148.79 0 0
27.1937 509.191 995.064 0 0
399.791 1247.44 2437.75 0 0
575.157 1266.78 2475.54 0 0
689.565 697.799 1363.64 0 0
-955.331 1182.88 2299.3 0 0
-803.22 1190.31 2313.74 0 0
-652.409 1203.78 2339.93 0 0
-491.588 1201.53 2335.55 0 0
-84.5219 589.124 1145.15 0 0
-5.70789 536.567 1042.99 0 0
312.577 1225.66 2382.47 0 0
490.753 1265.28 2459.49 0 0
655.362 712.978 1385.9 0 0
728.6 692.57 1346.23 0 0
-855.769 1164.86 2252.3 0 0
-712.498 1182.52 2286.45 0 0
-557.042 1184.2 2289.71 0 0
-44.0421 595.129 1150.71 0 0
29.8074 512.803 991.53 0 0
396.347 1229.41 2377.13 0 0
570.402 1254.96 2426.53 0 0
-1069.13 1155.42 2222.31 0 0
-641.548 1208.16 2323.76 0 0
-476.295 1192 2292.67 0 0
-81.5828 596.782 1147.84 0 0
-2.8231 535.845 1030.63 0 0
317.094 1230.94 2367.57 0 0
478.798 1230.72 2367.15 0 0
907.429 770.539 1482.04 0 0
-835.285 1157.32 2214.32 0 0
-694.169 1174.58 2247.35 0 0
-553.408 1202.42 2300.62 0 0
-41.0785 604.093 1155.83 0 0
32.4679 517.432 990.014 0 0
396.476 1222.77 2339.55 0 0
558.034 1226.47 2346.63 0 0
-751.758 1155.92 2200.15 0 0
-605.803 1164.37 2216.22 0 0
-464.904 1191.4 2267.68 0 0
-78.2291 601.396 1144.68 0 0
-0.00589248 537.858 1023.74 0 0
321.25 1234.98 2350.63 0 0
480.144 1230.53 2342.15 0 0
909.75 777.164 1479.23 0 0
-828.201 1167.97 2211.57 0 0
-695.578 1199.89 2272.02 0 0
-529.455 1175.77 2226.34 0 0
-38.3717 617.698 1169.62 0 0
35.0774 521.407 987.294 0 0
397.578 1219.32 2308.81 0 0
553.885 1216.1 2302.71 0 0
-597.367 1171.82 2207.44 0 0
-455.489 1195.36 2251.78 0 0
-75.565 611.415 1151.76 0 0
2.80511 545.92 1028.39 0 0
324.614 1236.17 2328.67 0 0
905.14 777.814 1465.22 0 0
-663.334 1166.53 2186.22 0 0
-511.35 1160.66 2175.21 0 0
-119.216 646.398 1211.43 0 0
-35.133 623.353 1168.24 0 0
37.7408 526.312 986.371 0 0
399.884 1219.73 2285.91 0 0
557.478 1222.76 2291.6 0 0
-734.262 1171.26 2183.89 0 0
-597.886 1197.01 2231.9 0 0
-442.157 1188.38 2215.81 0 0
-72.4904 618.339 1152.93 0 0
5.58959 548.936 1023.53 0 0
324.649 1225.02 2284.12 0 0
571.324 1099.02 2049.19 0 0
650.032 720.578 1343.56 0 0
753.784 732.174 1365.19 0 0
893.438 772.248 1439.91 0 0
-915.913 1128.89 2094.21 0 0
-794.789 1161 2153.79 0 0
-648.848 1163.23 2157.91 0 0
-505.428 1172.6 2175.31 0 0
-114.52 645.22 1196.96 0 0
-31.9919 630.769 1170.15 0 0
40.794 536.398 995.078 0 0
406.794 1234.23 2289.64 0 0
550.26 1205.75 2236.8 0 0
668.201 1145.88 2125.73 0 0
-1006.02 1159.28 2139.75 0 0
-575.987 1176.93 2172.32 0 0
-420.85 1158.51 2138.32 0 0
-69.119 622.661 1149.28 0 0
8.43404 557.619 1029.23 0 0
323.138 1208.5 2230.6 0 0
570.328 1097.53 2025.76 0 0
659.875 734.793 1356.25 0 0
-780.829 1160.78 2131.75 0 0
-640.686 1170.89 2150.32 0 0
