ply
format ascii 1.0
element vertex 1433
property float x
property float y
property float z
property float u
property float v
end_header
27.8314 -349.318 636.449 0 0
7.17629 -358.632 656.69 0 0
50.3599 -346.976 635.346 0 0
9.22534 -365.096 675.285 0 0
52.5255 -346.331 640.577 0 0
10.9904 -358.768 670.36 0 0
54.7268 -345.673 645.892 0 0
12.8252 -355.169 670.484 0 0
14.7349 -353.35 674.006 0 0
-90.6636 -596.439 1143.66 0 0
16.5519 -349.131 672.976 0 0
18.3075 -343.875 669.905 0 0
-120.717 -575.055 1132.33 0 0
20.2163 -341.525 672.487 0 0
-121.887 -589.495 1173.39 0 0
22.2184 -340.359 677.484 0 0
-118.179 -580.617 1168.43 0 0
24.2005 -338.476 681.15 0 0
-111.527 -556.964 1133.3 0 0
4.54654 -406.874 832.531 0 0
-108.892 -553.115 1138.13 0 0
6.48777 -382.599 791.718 0 0
-105.903 -547.528 1139.45 0 0
7.94013 -347.153 726.588 0 0
-102.47 -539.618 1135.91 0 0
-138.123 -530.347 1122.86 0 0
9.79694 -338.712 717.126 0 0
-98.2875 -527.625 1123.6 0 0
11.7403 -334.31 716.096 0 0
-94.5085 -517.607 1115.25 0 0
-131.839 -517.497 1121.62 0 0
13.6752 -329.853 714.919 0 0
-90.9263 -508.525 1108.74 0 0
-129.783 -515.376 1130.41 0 0
15.7483 -328.426 720.362 0 0
-87.8266 -502.069 1107.87 0 0
-127.526 -512.543 1137.85 0 0
17.6915 -324.013 719.309 0 0
-84.5032 -494.286 1104.01 0 0
-123.226 -501.481 1126.96 0 0
19.7818 -322.102 723.852 0 0
-81.2129 -486.617 1100.32 0 0
-120.264 -495.809 1128.08 0 0
21.9942 -321.563 731.627 0 0
-158.734 -497.326 1138.61 0 0
-78.2957 -481.158 1101.59 0 0
-117.196 -489.706 1128.22 0 0
24.0681 -318.543 733.886 0 0
-154.751 -488.353 1132.24 0 0
-113.895 -482.619 1126.08 0 0
-152.225 -483.973 1136.49 0 0
-72.0014 -467.348 1097.45 0 0
-110.599 -475.529 1123.87 0 0
-149.319 -478.399 1138.01 0 0
-69.2227 -462.826 1100.96 0 0
5.11863 -394.02 937.287 0 0
-107.255 -468.195 1121.02 0 0
-146.84 -474.218 1142.93 0 0
-66.217 -456.833 1101.02 0 0
7.27232 -368.221 887.459 0 0
-103.797 -460.322 1116.79 0 0
-141.441 -460.565 1124.84 0 0
9.16315 -343.325 838.505 0 0
-100.723 -454.122 1116.56 0 0
-138.288 -454.156 1124.2 0 0
11.1534 -329.817 816.415 0 0
-97.2792 -446.218 1112.07 0 0
-135.412 -448.662 1125.83 0 0
13.1528 -319.711 802.255 0 0
-175.899 -454.786 1149.08 0 0
-94.2402 -440.143 1112.08 0 0
-132.49 -443.029 1127.16 0 0
15.1451 -311.202 791.763 0 0
-173.371 -450.095 1153.16 0 0
-91.3669 -434.855 1114.11 0 0
-129.706 -437.869 1129.75 0 0
17.3942 -308.378 795.647 0 0
-167.341 -436.287 1133.66 0 0
-88.4889 -429.577 1116.22 0 0
-127.306 -434.039 1135.88 0 0
19.6244 -304.889 797.9 0 0
-166.618 -436.312 1150.06 0 0
-85.8128 -425.333 1121.12 0 0
-125.662 -432.863 1149.25 0 0
21.8807 -301.565 800.654 0 0
-162.443 -427.311 1142.8 0 0
-82.9178 -420.063 1123.42 0 0
-123.24 -429.082 1155.99 0 0
24.1693 -298.424 803.984 0 0
-155.253 -410.317 1113.64 0 0
-80.0244 -414.841 1125.92 0 0
-2.6121 -351.353 953.604 0 0
-120.233 -423.303 1157.47 0 0
-152.079 -403.883 1112.68 0 0
-0.0051186 -322.796 889.291 0 0
-117.176 -417.355 1158.52 0 0
-150.619 -402.023 1124.49 0 0
2.36113 -309.471 865.619 0 0
-193.966 -412.699 1163.25 0 0
-113.997 -410.976 1158.39 0 0
-147.423 -395.547 1123.56 0 0
4.67991 -301.688 856.953 0 0
-190.85 -406.474 1163.64 0 0
-110.771 -404.425 1157.77 0 0
-144.135 -388.821 1121.88 0 0
6.99341 -295.78 853.423 0 0
-187.262 -399.245 1161.11 0 0
-107.565 -397.943 1157.33 0 0
-141.292 -383.293 1123.65 0 0
9.33811 -291.486 854.514 0 0
-184.536 -393.854 1163.94 0 0
-104.56 -392.212 1159.09 0 0
-138.219 -377.146 1123.64 0 0
11.7265 -288.108 858.365 0 0
-178.308 -380.981 1144.38 0 0
-101.855 -387.64 1164.39 0 0
-135.317 -371.467 1125.04 0 0
14.149 -284.951 863.018 0 0
-171.353 -366.538 1119.38 0 0
-98.8365 -381.908 1166.32 0 0
-17.6251 -351.771 1074.29 0 0
-217.239 -379.497 1168.71 0 0
-132.99 -367.385 1131.41 0 0
16.677 -283.102 871.853 0 0
-167.038 -357.73 1111.03 0 0
-95.6208 -375.423 1165.98 0 0
-14.4741 -340.847 1058.6 0 0
-212.514 -370.439 1160.36 0 0
-130.764 -363.61 1138.97 0 0
19.1344 -279.42 875.25 0 0
-166.107 -356.173 1125.3 0 0
-92.2249 -368.215 1163.35 0 0
-11.4568 -331.482 1047.29 0 0
-206.506 -359.162 1144.63 0 0
-128.367 -359.387 1145.35 0 0
21.7113 -276.988 882.747 0 0
-164.62 -353.433 1136.27 0 0
-88.9913 -361.637 1162.65 0 0
-8.56762 -324.751 1044.06 0 0
-201.782 -350.136 1135.65 0 0
-125.369 -353.5 1146.57 0 0
-44.9989 -338.324 1097.34 0 0
-161.485 -347.159 1136.07 0 0
-85.3831 -353.5 1156.82 0 0
-5.72616 -319.736 1046.33 0 0
-200.815 -347.627 1147.87 0 0
-122.994 -349.389 1153.69 0 0
-41.1982 -325.985 1076.41 0 0
-157.331 -338.688 1128.54 0 0
-81.7506 -345.19 1150.2 0 0
-2.88039 -315.583 1051.55 0 0
-200.144 -345.613 1162.2 0 0
-120.455 -344.842 1159.6 0 0
-37.962 -317.641 1068.14 0 0
-151.007 -325.538 1104.85 0 0
-77.4428 -333.884 1133.17 0 0
-0.00607876 -311.177 1056.11 0 0
-195.136 -336.105 1151.39 0 0
-117.035 -337.78 1157.13 0 0
-34.9738 -311.192 1066.05 0 0
-151.193 -326.419 1128.78 0 0
-71.963 -317.189 1096.86 0 0
2.88069 -305.4 1056.1 0 0
-190.277 -326.869 1141.12 0 0
-112.361 -327.056 1141.78 0 0
-32.0215 -304.999 1064.77 0 0
-225.139 -320.099 1128.25 0 0
-150.734 -325.927 1148.8 0 0
-67.6534 -305.275 1076 0 0
5.76284 -299.387 1055.25 0 0
-185.842 -318.377 1133.1 0 0
-107.451 -315.56 1123.08 0 0
-29.0398 -298.446 1062.17 0 0
-223.452 -315.906 1135.35 0 0
-146.054 -316.311 1136.81 0 0
-63.9965 -296.081 1064.1 0 0
8.62529 -292.871 1052.56 0 0
-185.059 -316.135 1147.45 0 0
-102.04 -302.481 1097.89 0 0
-26.0877 -292.094 1060.19 0 0
-222.705 -313.011 1147.49 0 0
-140.261 -304.27 1115.45 0 0
-60.8801 -289.277 1060.49 0 0
11.4987 -287.024 1052.22 0 0
-181.63 -309.364 1145.6 0 0
-97.6192 -292.227 1082.15 0 0
-23.2744 -287.343 1064.06 0 0
-224.664 -313.857 1174.13 0 0
-136.676 -297.009 1111.1 0 0
-57.2833 -280.066 1047.72 0 0
14.3311 -280.415 1049.02 0 0
-177.692 -301.732 1140.43 0 0
-93.4239 -282.569 1068 0 0
-20.3622 -281.476 1063.87 0 0
-219.076 -304.136 1161.52 0 0
-132.335 -288.096 1100.26 0 0
-54.2338 -273.403 1044.14 0 0
17.2662 -275.761 1053.15 0 0
-172.857 -292.59 1129.21 0 0
-89.1534 -272.599 1052.06 0 0
-17.4633 -275.804 1064.42 0 0
-215.84 -297.701 1161.19 0 0
-126.544 -276.009 1076.57 0 0
-51.1602 -266.551 1039.68 0 0
20.2112 -270.892 1056.61 0 0
-168.116 -283.626 1118.2 0 0
-85.1059 -263.223 1037.77 0 0
-14.5539 -269.987 1064.43 0 0
-209.709 -287.302 1145.04 0 0
-118.621 -259.239 1033.2 0 0
-48.1759 -260.098 1036.62 0 0
23.2309 -266.625 1062.63 0 0
-163.788 -275.376 1109.59 0 0
-81.747 -255.915 1031.18 0 0
-11.647 -264.227 1064.67 0 0
-204.056 -277.61 1131.06 0 0
-114.049 -249.762 1017.6 0 0
-45.3757 -254.619 1037.38 0 0
26.2561 -262.019 1067.53 0 0
-159.58 -267.34 1101.48 0 0
-78.6487 -249.391 1027.53 0 0
-8.73381 -258.32 1064.31 0 0
-198.545 -268.158 1117.43 0 0
-110.835 -243.251 1013.64 0 0
-42.4275 -248.288 1034.64 0 0
29.3264 -257.52 1073.1 0 0
-148.059 -247.115 1041.61 0 0
-75.3733 -242.273 1021.2 0 0
-5.83008 -252.739 1065.32 0 0
-193.619 -259.541 1106.74 0 0
-107.312 -236.055 1006.59 0 0
-39.6132 -242.717 1035 0 0
-233.658 -260.685 1124.73 0 0
-143.573 -238.696 1029.85 0 0
-72.207 -235.468 1015.93 0 0
-2.925 -247.499 1067.84 0 0
-184.245 -245.047 1069.87 0 0
-104.063 -229.455 1001.8 0 0
-36.7717 -236.978 1034.65 0 0
-226.137 -249.628 1103.04 0 0
-139.847 -231.558 1023.19 0 0
-69.1274 -228.912 1011.5 0 0
-0.00614693 -241.687 1067.95 0 0
-179.445 -236.723 1058.8 0 0
-100.517 -222.193 993.814 0 0
-33.7471 -229.983 1028.66 0 0
-219.927 -240.109 1087.24 0 0
-135.515 -223.432 1011.73 0 0
-65.9773 -222.085 1005.63 0 0
2.9141 -235.936 1068.35 0 0
-174.524 -228.284 1046.65 0 0
-97.3175 -215.69 988.906 0 0
-30.8417 -223.68 1025.54 0 0
-214.731 -231.765 1076.09 0 0
-131.883 -216.48 1005.13 0 0
-62.9719 -215.709 1001.55 0 0
-256.54 -234.783 1104.12 0 0
-169.913 -220.293 1035.98 0 0
-94.229 -209.427 984.878 0 0
-27.9403 -217.311 1021.95 0 0
-209.395 -223.328 1063.93 0 0
-128.202 -209.46 997.862 0 0
-59.9812 -209.35 997.339 0 0
-247.502 -223.316 1077.91 0 0
-165.909 -213.124 1028.71 0 0
-91.2221 -203.341 981.491 0 0
-25.1826 -212.025 1023.41 0 0
-205.18 -216.136 1057.2 0 0
-125.131 -203.445 995.124 0 0
-57.2684 -203.945 997.571 0 0
-243.941 -216.877 1075.2 0 0
-162.897 -207.246 1027.45 0 0
-88.9166 -198.819 985.673 0 0
-22.3518 -206.122 1021.88 0 0
-202.76 -210.844 1059.65 0 0
-122.171 -197.618 993.177 0 0
-54.4839 -198.282 996.517 0 0
-239.217 -209.435 1067.23 0 0
-159.448 -200.823 1023.34 0 0
-86.0182 -192.972 983.34 0 0
-19.5344 -200.288 1020.62 0 0
-198.365 -203.514 1051.71 0 0
-119.266 -191.882 991.594 0 0
-51.7399 -192.759 996.129 0 0
-235.187 -202.642 1062.21 0 0
-157.06 -195.738 1026.02 0 0
-83.1343 -187.155 981.027 0 0
-16.7273 -194.507 1019.56 0 0
-274.235 -202.851 1078.75 0 0
-195.14 -197.411 1049.82 0 0
-117.012 -187.192 995.483 0 0
-48.9552 -187.077 994.872 0 0
-230.935 -195.693 1056.04 0 0
-154.203 -190.063 1025.66 0 0
-80.5133 -181.929 981.765 0 0
-13.9315 -188.812 1018.91 0 0
-270.501 -196.383 1075.63 0 0
-192.33 -191.73 1050.15 0 0
-114.624 -182.279 998.381 0 0
-46.3155 -181.951 996.587 0 0
-226.954 -189.008 1050.97 0 0
-151.393 -184.449 1025.62 0 0
-78.0178 -176.988 984.137 0 0
-11.1582 -183.437 1019.99 0 0
-267.453 -190.425 1075.19 0 0
-189.726 -186.251 1051.63 0 0
-111.735 -176.569 996.956 0 0
-43.5465 -176.322 995.561 0 0
-223.591 -182.862 1048.67 0 0
-148.353 -178.557 1023.99 0 0
-75.6586 -172.362 988.461 0 0
-263.649 -183.944 1071.68 0 0
-185.52 -179.215 1044.13 0 0
-109.96 -172.609 1005.64 0 0
-40.8613 -171.03 996.441 0 0
-218.566 -175.397 1038.42 0 0
-145.641 -173.062 1024.6 0 0
-73.1872 -167.486 991.583 0 0
-259.583 -177.309 1067.01 0 0
-180.99 -171.916 1034.55 0 0
-107.777 -167.994 1010.95 0 0
-38.302 -166.296 1000.74 0 0
-215.363 -169.433 1036.66 0 0
-141.797 -166.238 1017.12 0 0
-70.4489 -162.001 991.191 0 0
-255.617 -170.775 1062.65 0 0
-177.026 -165.2 1027.95 0 0
-105.256 -162.842 1013.28 0 0
-35.7179 -161.51 1004.99 0 0
-212.057 -163.401 1034.36 0 0
-138.687 -160.297 1014.7 0 0
-67.8396 -156.813 992.655 0 0
-250.148 -163.292 1051.86 0 0
-172.925 -158.398 1020.34 0 0
-102.096 -156.703 1009.42 0 0
-33.1997 -157.099 1011.97 0 0
-208.262 -157.017 1029.58 0 0
-135.331 -154.087 1010.36 0 0
-65.1273 -151.389 992.671 0 0
2.83468 -158.489 1039.23 0 0
-246.089 -156.787 1046.83 0 0
-168.917 -151.724 1013.02 0 0
-99.2816 -151.101 1008.86 0 0
-30.5227 -152.01 1014.94 0 0
-204.844 -150.944 1026.55 0 0
-132.086 -148.021 1006.67 0 0
-62.3302 -145.767 991.341 0 0
5.67654 -152.84 1039.45 0 0
-243.47 -151.215 1047.87 0 0
-165.831 -145.908 1011.09 0 0
-96.423 -145.433 1007.81 0 0
-27.9119 -147.325 1020.92 0 0
-200.96 -144.556 1021.07 0 0
-128.87 -142.006 1003.06 0 0
-60.2584 -141.849 1001.95 0 0
8.56176 -147.917 1044.81 0 0
-239.908 -145.064 1044.83 0 0
-161.913 -139.386 1003.94 0 0
-93.3873 -139.504 1004.79 0 0
-25.1359 -141.826 1021.51 0 0
-197.745 -138.677 1018.89 0 0
-125.653 -136.009 999.283 0 0
-57.743 -136.901 1005.84 0 0
11.4784 -142.962 1050.37 0 0
-235.792 -138.612 1039.28 0 0
-158.378 -133.233 998.951 0 0
-90.2616 -133.451 1000.58 0 0
-22.4959 -137.17 1028.47 0 0
-193.605 -132.182 1011.81 0 0
-122.351 -129.939 994.642 0 0
-55.2731 -132.07 1010.95 0 0
14.3881 -137.588 1053.19 0 0
-232.905 -132.903 1039.07 0 0
-155.12 -127.338 995.561 0 0
-87.4762 -127.907 1000.01 0 0
-19.7218 -131.796 1030.41 0 0
-190.336 -126.316 1009.14 0 0
-119.402 -124.262 992.727 0 0
-52.7895 -127.217 1016.34 0 0
17.3208 -132.243 1056.48 0 0
-227.835 -125.99 1029 0 0
-151.956 -121.542 992.673 0 0
-84.6442 -122.298 998.844 0 0
-16.8799 -125.973 1028.86 0 0
-186.152 -119.882 1001.47 0 0
-116.079 -118.214 987.539 0 0
-49.956 -121.527 1015.21 0 0
20.3465 -127.33 1063.69 0 0
-223.971 -119.802 1024.19 0 0
-149.881 -116.612 996.916 0 0
-81.4926 -116.236 993.707 0 0
-14.0989 -120.617 1031.16 0 0
-182.136 -113.609 994.486 0 0
-113.377 -112.813 987.519 0 0
-47.1098 -115.801 1013.68 0 0
23.2131 -121.301 1061.81 0 0
-220.843 -114.034 1022.68 0 0
-145.826 -110.157 987.906 0 0
-78.8927 -110.967 995.174 0 0
-11.2724 -114.899 1030.44 0 0
-179.04 -107.944 992.391 0 0
-110.418 -107.163 985.205 0 0
-44.3879 -110.382 1014.8 0 0
26.3067 -116.341 1069.59 0 0
-216.375 -107.611 1014.83 0 0
-142.275 -104.134 982.039 0 0
-76.4912 -105.968 999.339 0 0
-8.47691 -109.539 1033.01 0 0
-174.808 -101.636 983.84 0 0
-107.549 -101.61 983.595 0 0
-41.4523 -104.426 1010.85 0 0
-213.162 -101.853 1012.74 0 0
-139.513 -98.7097 981.486 0 0
-73.574 -100.252 996.823 0 0
-5.65266 -103.88 1032.9 0 0
-171.984 -96.1824 983.075 0 0
-104.877 -96.2486 983.752 0 0
-38.6828 -98.8839 1010.69 0 0
-209.619 -95.9619 1009.01 0 0
-136.351 -93.0177 978.055 0 0
-70.6193 -94.4951 993.589 0 0
-264.214 -101.459 1098.38 0 0
-168.601 -90.4344 979.03 0 0
-101.925 -90.6363 981.216 0 0
-36.0558 -93.7109 1014.5 0 0
-205.658 -89.9199 1003.15 0 0
-133.058 -87.2641 973.518 0 0
-67.9096 -89.0714 993.68 0 0
-256.834 -93.855 1079.98 0 0
-165.679 -84.9562 977.581 0 0
-98.9538 -85.0237 978.358 0 0
-33.4168 -88.5199 1018.59 0 0
-201.979 -84.0459 998.512 0 0
-130.286 -81.8722 972.688 0 0
-65.2556 -83.7188 994.626 0 0
-250.879 -86.9107 1067.2 0 0
-162.615 -79.4208 975.234 0 0
-96.0879 -79.5166 976.411 0 0
-30.5043 -82.6043 1014.33 0 0
-198.263 -78.1979 993.567 0 0
-127.208 -76.3031 969.492 0 0
-62.4593 -78.1843 993.393 0 0
-244.639 -79.9897 1052.9 0 0
-159.195 -73.7397 970.632 0 0
-93.4982 -74.2416 977.239 0 0
-27.8314 -77.336 1017.97 0 0
-194.529 -72.3875 988.395 0 0
-124.399 -70.9127 968.258 0 0
-59.831 -72.8596 994.842 0 0
8.54478 -76.3675 1042.74 0 0
-238.56 -73.2507 1038.96 0 0
-156.685 -68.4959 971.519 0 0
-91.2195 -69.1969 981.462 0 0
-25.0471 -71.7661 1017.9 0 0
-190.987 -66.6908 984.069 0 0
-121.498 -65.4825 966.238 0 0
-57.2557 -67.5909 997.35 0 0
11.4257 -70.8574 1045.55 0 0
-233.201 -66.8488 1027.86 0 0
-154.314 -63.3017 973.316 0 0
-88.133 -63.5404 976.987 0 0
-22.2608 -66.1896 1017.72 0 0
-188.883 -61.5018 987.13 0 0
-119.019 -60.282 967.551 0 0
-54.4871 -62.0902 996.574 0 0
14.3368 -65.3839 1049.44 0 0
-227.403 -60.4356 1014.53 0 0
-150.146 -57.4042 963.639 0 0
-84.837 -57.7733 969.836 0 0
-19.4805 -60.6308 1017.8 0 0
-184.465 -55.5869 978.009 0 0
-116.217 -54.9182 966.243 0 0
-51.688 -56.56 995.13 0 0
17.2653 -59.8543 1053.09 0 0
-223.48 -54.6081 1009.33 0 0
-147.718 -52.2091 964.988 0 0
-82.4136 -52.6167 972.522 0 0
-16.789 -55.3651 1023.32 0 0
-180.832 -49.975 972.845 0 0
-113.326 -49.5268 964.12 0 0
-49.1393 -51.2987 998.614 0 0
20.1573 -54.1334 1053.8 0 0
-218.772 -48.6568 1000.42 0 0
-144.742 -46.8242 962.738 0 0
-79.8895 -47.3797 974.159 0 0
-282.119 -51.4954 1121.83 0 0
-176.937 -44.347 966.101 0 0
-110.44 -44.1558 961.936 0 0
-46.3076 -45.7386 996.417 0 0
23.0639 -48.4273 1054.99 0 0
-214.625 -42.9054 993.88 0 0
-141.727 -41.4487 960.136 0 0
-77.0833 -41.976 972.349 0 0
-270.455 -43.9649 1087.27 0 0
-175.168 -39.2609 970.934 0 0
-108.028 -38.9755 963.876 0 0
-43.69 -40.3893 998.841 0 0
26.0488 -42.8262 1059.11 0 0
-210.522 -37.2268 987.377 0 0
-139.498 -36.3027 962.866 0 0
-74.4249 -36.66 972.343 0 0
-262.665 -37.3361 1067.68 0 0
-171.606 -33.7742 965.824 0 0
-105.033 -33.591 960.586 0 0
-40.911 -34.8873 997.654 0 0
28.8744 -36.9474 1056.57 0 0
-207.303 -31.7493 984.905 0 0
-135.726 -30.7803 954.845 0 0
-71.7378 -31.3316 971.946 0 0
-256.701 -31.1299 1055.16 0 0
-168.397 -28.3981 962.566 0 0
-102.496 -28.364 961.41 0 0
-38.3684 -29.5754 1002.47 0 0
31.9033 -31.3095 1061.25 0 0
-202.529 -26.0968 974.886 0 0
-133.223 -25.5808 955.612 0 0
-69.0237 -25.9965 971.139 0 0
-2.80624 -27.4243 1024.48 0 0
-251.561 -25.1361 1045.79 0 0
-165.54 -23.1044 961.259 0 0
-99.6275 -23.0525 959.099 0 0
-35.6615 -24.1175 1003.41 0 0
-199.273 -20.7058 972.004 0 0
-130.578 -20.3516 955.376 0 0
-66.5994 -20.7591 974.508 0 0
-0.00591007 -21.873 1026.8 0 0
-246.927 -19.2803 1038.32 0 0
-162.43 -17.7965 958.411 0 0
-97.425 -17.8862 963.243 0 0
-32.9023 -18.6227 1002.91 0 0
-196.043 -15.3471 969.169 0 0
-127.837 -15.1134 954.41 0 0
-63.7967 -15.3981 972.391 0 0
2.80368 -16.2766 1027.87 0 0
-242.076 -13.4917 1029.75 0 0
-159.862 -12.5611 958.722 0 0
-94.4904 -12.5801 960.178 0 0
-30.2145 -13.1633 1004.69 0 0
-193.279 -10.0428 968.592 0 0
-124.829 -9.86415 951.363 0 0
-60.9549 -10.0519 969.467 0 0
5.62674 -10.6829 1030.33 0 0
-236.31 -7.76523 1017.06 0 0
-157.343 -7.32456 959.338 0 0
-91.7097 -7.31851 958.546 0 0
-27.5086 -7.68208 1006.16 0 0
-290.734 -5.37457 1096.5 0 0
-189.579 -4.72143 963.246 0 0
-122.311 -4.66635 952.009 0 0
-58.5181 -4.76929 973.01 0 0
8.45898 -5.05976 1032.27 0 0
-229.906 -2.17091 1001.27 0 0
-154.496 -2.07698 957.95 0 0
-89.1472 -2.07962 959.166 0 0
-24.7541 -2.18114 1005.99 0 0
-282.381 0.60829 1076.09 0 0
-187.329 0.545619 965.219 0 0
-119.73 0.538248 952.179 0 0
-55.8454 0.549895 972.783 0 0
11.2978 0.584411 1033.84 0 0
-225.621 3.2804 994.45 0 0
-151.804 3.15846 957.483 0 0
-86.4122 3.15987 957.911 0 0
-21.984 3.31541 1005.06 0 0
-276.31 6.41841 1064.03 0 0
-184.156 5.80547 962.423 0 0
-116.792 5.72724 949.453 0 0
-53.3074 5.88133 974.998 0 0
14.101 6.22626 1032.18 0 0
-221.47 8.66089 988.058 0 0
-149.138 8.39013 957.168 0 0
-83.922 8.40949 959.377 0 0
-19.1952 8.79096 1002.9 0 0
-270.866 12.1219 1054.17 0 0
-181.845 11.0864 964.12 0 0
-114.617 10.9579 952.944 0 0
-50.6983 11.2239 976.076 0 0
16.928 11.873 1032.52 0 0
-217.406 13.9748 981.899 0 0
-146.487 13.6197 956.947 0 0
-81.4004 13.6712 960.565 0 0
-16.5087 14.3212 1006.24 0 0
-265.182 17.6978 1043.14 0 0
-178.404 16.2836 959.787 0 0
-112.111 16.1818 953.787 0 0
-48.0479 16.566 976.434 0 0
19.8684 17.6223 1038.69 0 0
-213.95 19.2732 978.37 0 0
-144.319 18.9098 959.922 0 0
-78.6101 18.8829 958.558 0 0
-13.8132 19.9014 1010.26 0 0
-261.014 23.283 1037.9 0 0
-175.539 21.501 958.467 0 0
-109.162 21.3293 950.81 0 0
-45.4894 21.9574 978.812 0 0
22.682 23.2745 1037.52 0 0
-210.238 24.5008 973.562 0 0
-141.617 24.1443 959.394 0 0
-76.3388 24.234 962.959 0 0
-11.0461 25.4113 1009.74 0 0
-257.546 28.8864 1035.37 0 0
-173.201 26.7845 960.031 0 0
-106.894 26.6095 953.758 0 0
-42.9507 27.3957 981.94 0 0
25.6506 29.0969 1042.92 0 0
-207.596 29.826 973.655 0 0
-138.659 29.3182 957.077 0 0
-73.852 29.5565 964.857 0 0
-8.31022 31.0219 1012.69 0 0
-252.334 34.2235 1025.69 0 0
-170.34 31.9882 958.695 0 0
-104.343 31.8406 954.271 0 0
-40.422 32.8902 985.728 0 0
28.5979 34.9163 1046.45 0 0
-204.513 35.0764 971.649 0 0
-135.618 34.4425 954.088 0 0
-71.1698 34.8093 964.251 0 0
-5.54183 36.5565 1012.65 0 0
-247.226 39.4629 1016.21 0 0
-167.849 37.258 959.434 0 0
-101.797 37.0803 954.857 0 0
-37.7489 38.3008 986.286 0 0
-292.217 43.996 1058.44 0 0
-201.728 40.3626 971.031 0 0
-133.084 39.6803 954.616 0 0
-68.7066 40.1816 966.677 0 0
-2.78 42.186 1014.9 0 0
-242.655 44.6883 1008.76 0 0
-165.195 42.4951 959.254 0 0
-99.2858 42.3425 955.809 0 0
-35.1397 43.8008 988.728 0 0
-296.225 50.9697 1083.69 0 0
-198.197 45.4699 966.753 0 0
-130.033 44.7472 951.388 0 0
-65.9537 45.3903 965.061 0 0
-0.00584724 47.7806 1015.88 0 0
-237.678 49.7384 999.425 0 0
-162.342 47.6715 957.892 0 0
-96.7586 47.6098 956.654 0 0
-32.4558 49.2344 989.298 0 0
-295.078 57.2463 1090.4 0 0
-195.684 50.7885 967.391 0 0
-127.038 49.7936 948.441 0 0
-63.642 50.9272 970.032 0 0
2.77178 53.3494 1016.17 0 0
-233.182 54.7877 991.921 0 0
-159.542 52.848 956.804 0 0
-94.3218 52.9397 958.464 0 0
-29.9115 54.9363 994.612 0 0
-287.918 62.303 1074.79 0 0
-192.452 55.9066 964.449 0 0
-124.892 55.1759 951.844 0 0
-60.9823 56.2227 969.902 0 0
5.57141 59.1381 1020.2 0 0
-229.703 60.01 988.62 0 0
-156.709 57.9979 955.472 0 0
-91.9415 58.3316 960.969 0 0
-27.2591 60.521 997.039 0 0
-281.544 67.3567 1061.84 0 0
-189.6 61.1096 963.354 0 0
-122.298 60.3831 951.902 0 0
-58.495 61.6979 972.628 0 0
8.39299 64.9704 1024.22 0 0
-226.778 65.3505 987.651 0 0
-154.272 63.2933 956.559 0 0
-89.4587 63.6875 962.517 0 0
-24.5397 65.9878 997.281 0 0
-275.074 72.2248 1048.24 0 0
-186.988 66.3836 963.462 0 0
-119.591 65.5296 951.068 0 0
-56.1193 67.3546 977.556 0 0
11.242 70.8813 1028.74 0 0
-223.796 70.6605 986.403 0 0
-150.718 68.0981 950.633 0 0
-86.8777 68.9892 963.072 0 0
-21.9361 71.8405 1002.88 0 0
-272.336 77.9917 1048.73 0 0
-183.846 71.4531 960.805 0 0
-116.568 70.4733 947.63 0 0
-53.4197 72.6613 977.052 0 0
14.1526 77.0418 1035.96 0 0
-221.073 76.0439 986.284 0 0
-148.294 73.3813 951.751 0 0
-84.331 74.3297 964.052 0 0
-19.2933 77.7197 1008.02 0 0
-267.642 83.1574 1041.62 0 0
-181.6 76.8668 962.823 0 0
-113.98 75.6555 947.65 0 0
-51.0905 78.5276 983.626 0 0
-293.322 83.5862 1012.33 0 0
-218.448 81.4623 986.606 0 0
-145.933 78.7144 953.326 0 0
-82.1317 80.0248 969.196 0 0
-16.6111 83.5986 1012.48 0 0
-264.404 88.7207 1040.08 0 0
-179.603 82.4215 966.236 0 0
-112.018 81.2921 952.995 0 0
-48.739 84.4896 990.48 0 0
19.8947 88.7197 1040.07 0 0
-217.768 87.6679 995.829 0 0
-144.717 84.7398 962.568 0 0
-80.419 86.3286 980.616 0 0
-13.8757 89.3408 1014.83 0 0
-260.795 94.1303 1037.04 0 0
-178.13 88.283 972.617 0 0
-109.983 86.9525 957.959 0 0
-46.1691 90.1728 993.437 0 0
-303.167 99.7131 1066.43 0 0
-214.829 93.0178 994.822 0 0
-143.381 90.8223 971.341 0 0
-77.6578 91.5942 979.597 0 0
-11.1595 95.3822 1020.11 0 0
-256.861 99.3741 1032.61 0 0
-175.314 93.5156 971.739 0 0
-108.322 93.0118 966.504 0 0
-43.6658 96.0706 998.288 0 0
-305.79 107.49 1086.1 0 0
-212.342 98.5641 995.911 0 0
-139.356 95.1972 961.891 0 0
-74.8159 96.7372 977.451 0 0
-8.37964 101.062 1021.15 0 0
-252.747 104.486 1027.37 0 0
-173.16 99.1157 974.567 0 0
-105.832 98.4369 967.894 0 0
-40.9641 101.595 998.949 0 0
-298.166 111.684 1069.4 0 0
-209.568 103.983 995.666 0 0
-136.318 100.155 959.01 0 0
-72.3915 102.431 980.803 0 0
-5.597 106.809 1022.73 0 0
-249.483 109.901 1025.49 0 0
-170.481 104.434 974.481 0 0
-103.207 103.748 968.08 0 0
-38.423 107.587 1003.9 0 0
-290.629 115.693 1052.69 0 0
-206.626 109.31 994.606 0 0
-134.85 106.307 967.285 0 0
-70.2925 108.693 988.991 0 0
-2.79236 112.036 1019.41 0 0
-246.216 115.29 1023.57 0 0
-168.194 110.008 976.668 0 0
-101.213 109.749 974.365 0 0
-35.7274 113.229 1005.26 0 0
-286.398 120.877 1047.74 0 0
-202.844 114.149 989.419 0 0
-131.645 111.121 963.177 0 0
-67.9193 114.657 993.821 0 0
-0.00586131 117.484 1018.33 0 0
-243.708 121.03 1024.78 0 0
-165.536 115.355 976.736 0 0
-99.1327 115.756 980.126 0 0
-32.8936 118.415 1002.64 0 0
-282.437 126.115 1043.68 0 0
-200.299 119.653 990.206 0 0
-128.541 115.962 959.665 0 0
-65.2427 120.163 994.43 0 0
-335.413 136.601 1105.45 0 0
-240.79 126.571 1024.29 0 0
-163.32 121.032 979.461 0 0
-96.9303 121.713 984.971 0 0
-30.1044 123.697 1001.03 0 0
-278.026 131.086 1037.87 0 0
-197.412 124.952 989.304 0 0
-128.13 123.337 976.52 0 0
-62.5807 125.713 995.325 0 0
-331.907 142.436 1103.84 0 0
-237.436 131.862 1021.9 0 0
-160.818 126.524 980.527 0 0
-94.4733 127.415 987.43 0 0
-27.3401 129.037 1000 0 0
-274.091 136.214 1033.73 0 0
-194.936 130.513 990.463 0 0
-126.266 129.502 982.791 0 0
-59.7631 130.941 993.712 0 0
-327.57 147.875 1099.41 0 0
-234.266 137.228 1020.26 0 0
-158.558 132.235 983.136 0 0
-92.2052 133.437 992.068 0 0
-24.5873 134.398 999.215 0 0
-269.668 141.03 1027.64 0 0
-192.615 136.202 992.457 0 0
-123.795 135.111 984.507 0 0
-57.2448 136.847 997.161 0 0
-313.303 148.545 1061.26 0 0
-230.699 142.326 1016.83 0 0
-156.24 137.936 985.464 0 0
-89.6884 139.163 994.229 0 0
-21.8727 139.967 999.976 0 0
-266.262 146.32 1025.34 0 0
-190.58 142.132 995.997 0 0
-121.505 140.958 987.764 0 0
-54.5733 142.44 998.151 0 0
-308.081 153.193 1053.33 0 0
-227.043 147.316 1012.92 0 0
-154.23 143.961 989.849 0 0
-87.0052 144.655 994.623 0 0
-19.0522 144.771 995.422 0 0
-261.921 151.038 1019.35 0 0
-188.561 148.13 999.728 0 0
-118.865 146.431 988.263 0 0
-51.8471 147.903 998.193 0 0
-302.936 157.771 1045.51 0 0
-223.678 152.447 1010.23 0 0
-151.402 149.252 989.054 0 0
-84.1687 149.883 993.233 0 0
-16.2859 149.796 992.656 0 0
-258.372 156.15 1016.35 0 0
-187.038 154.595 1006.23 0 0
-116.294 152.005 989.374 0 0
-49.1554 153.475 998.94 0 0
-299.585 163.219 1043.79 0 0
-220.192 157.452 1006.91 0 0
-149.199 155.18 992.381 0 0
-81.4916 155.385 993.695 0 0
-13.6015 155.554 994.779 0 0
-254.971 161.312 1013.88 0 0
-184.671 160.429 1008.33 0 0
-113.834 157.752 991.499 0 0
-46.3429 158.655 997.178 0 0
-295.788 168.388 1040.47 0 0
-218.246 163.561 1010.65 0 0
-146.85 161.004 994.846 0 0
-78.8434 160.956 994.552 0 0
-10.9059 161.341 996.932 0 0
-251.647 166.489 1011.65 0 0
-182.329 166.32 1010.62 0 0
-111.348 163.502 993.504 0 0
-43.675 164.324 998.499 0 0
-291.049 172.95 1033.74 0 0
-215.049 168.745 1008.61 0 0
-144.512 166.883 997.479 0 0
-76.2503 166.667 996.191 0 0
-8.1783 166.739 996.618 0 0
-331.779 179.466 1055.44 0 0
-248.745 171.925 1011.1 0 0
-179.45 171.733 1009.97 0 0
-109.056 169.592 997.379 0 0
-40.8991 169.59 997.364 0 0
-287.452 178.123 1030.97 0 0
-212.019 174.035 1007.31 0 0
-141.826 172.385 997.763 0 0
-73.5268 172.112 996.185 0 0
-5.43669 171.637 993.435 0 0
-342.7 193.011 1099.75 0 0
-245.143 176.848 1007.65 0 0
-176.719 177.285 1010.14 0 0
-106.578 175.454 999.708 0 0
-38.2104 175.214 998.343 0 0
-283.188 182.826 1025.74 0 0
-209.414 179.669 1008.03 0 0
-139.487 178.335 1000.54 0 0
-70.879 177.747 997.242 0 0
-2.71395 176.596 990.788 0 0
-327.307 191.766 1059.65 0 0
-241.935 182.015 1005.77 0 0
-174.025 182.878 1010.53 0 0
-104.042 181.261 1001.6 0 0
-35.4409 180.465 997.202 0 0
-278.837 187.393 1020.08 0 0
-206.213 184.78 1005.85 0 0
-137.226 184.442 1004.01 0 0
-68.2021 183.33 997.96 0 0
-0.00569585 181.791 989.581 0 0
-321.287 195.656 1049.44 0 0
-238.636 187.083 1003.46 0 0
-171.491 188.652 1011.87 0 0
-101.409 186.929 1002.63 0 0
-32.6348 185.46 994.753 0 0
-275.253 192.414 1017.14 0 0
-203.428 190.246 1005.67 0 0
-134.72 190.268 1005.79 0 0
-65.5129 188.898 998.549 0 0
2.6993 187.204 989.596 0 0
-326.047 206.219 1074.59 0 0
-235.537 192.278 1001.94 0 0
-168.906 194.393 1012.96 0 0
-98.7015 192.475 1002.97 0 0
-29.8039 190.185 991.034 0 0
-271.781 197.472 1014.55 0 0
-201.031 196.087 1007.44 0 0
-132.045 195.877 1006.36 0 0
-62.6182 193.845 995.921 0 0
5.3954 192.297 987.967 0 0
-319.623 209.805 1062.99 0 0
-232.638 197.619 1001.25 0 0
-166.493 200.358 1015.13 0 0
-96.0781 198.202 1004.2 0 0
-27.0644 195.382 989.915 0 0
-268.289 202.476 1011.84 0 0
-197.635 200.941 1004.18 0 0
-129.433 201.595 1007.44 0 0
-59.7349 198.754 993.244 0 0
-314.838 214.336 1056.68 0 0
-229.355 202.611 998.873 0 0
-163.59 205.746 1014.33 0 0
-93.0633 203.103 1001.3 0 0
-24.2734 200.092 986.457 0 0
-264.619 207.299 1008.4 0 0
-195.386 206.957 1006.73 0 0
-127.04 207.693 1010.31 0 0
-56.9802 204.041 992.551 0 0
-309.46 218.356 1048.25 0 0
-226.254 207.731 997.238 0 0
-160.99 211.519 1015.43 0 0
-90.278 208.465 1000.76 0 0
-21.5118 204.864 983.477 0 0
-261.239 212.305 1006 0 0
-192.49 212.301 1005.98 0 0
-124.434 213.483 1011.58 0 0
-54.2046 209.226 991.408 0 0
-304.396 222.48 1040.73 0 0
-223.864 213.503 998.738 0 0
-158.194 217.042 1015.29 0 0
-87.4685 213.756 999.919 0 0
-18.7583 209.512 980.069 0 0
-257.713 217.151 1002.98 0 0
-189.735 217.794 1005.95 0 0
-121.67 219.014 1011.58 0 0
-51.0571 212.822 982.984 0 0
-299.51 226.625 1033.68 0 0
-220.318 218.155 995.052 0 0
-155.435 222.615 1015.4 0 0
-84.3668 218.269 995.571 0 0
-16.0325 214.244 977.212 0 0
-254.795 222.479 1002.28 0 0
-187.051 223.373 1006.3 0 0
-119.198 225.098 1014.08 0 0
-48.0902 216.933 977.293 0 0
-295.981 231.725 1031.23 0 0
-217.285 223.273 993.62 0 0
-153.118 228.852 1018.45 0 0
-81.1957 222.479 990.087 0 0
-13.3127 218.787 973.657 0 0
-251.222 227.205 998.968 0 0
-184.569 229.207 1007.77 0 0
-116.395 230.581 1013.81 0 0
-45.3358 221.87 975.507 0 0
-292.155 236.548 1027.69 0 0
-214.694 228.838 994.197 0 0
-150.645 234.905 1020.56 0 0
-78.2833 227.294 987.488 0 0
-10.6141 223.328 970.26 0 0
-352.744 259.101 1112.46 0 0
-248.249 232.44 997.995 0 0
-181.841 234.751 1007.92 0 0
-113.494 235.854 1012.65 0 0
-42.58 226.727 973.464 0 0
-288.464 241.428 1024.56 0 0
-211.899 234.188 993.836 0 0
-148.559 241.628 1025.41 0 0
-75.1592 231.384 981.936 0 0
-7.9499 228.285 968.785 0 0
-326.325 247.454 1038.09 0 0
-245.385 237.763 997.439 0 0
-179.438 240.734 1009.9 0 0
-109.611 238.957 1002.45 0 0
-39.8718 231.774 972.312 0 0
-284.71 246.204 1021.14 0 0
-209.615 240.117 995.891 0 0
-145.809 247.324 1025.78 0 0
-72.2638 236.062 979.073 0 0
-5.28857 232.998 966.368 0 0
-325.984 255.083 1046.11 0 0
-241.737 242.293 993.651 0 0
-176.593 246.138 1009.42 0 0
-106.274 243.072 996.85 0 0
-37.0924 236.314 969.133 0 0
-281.336 251.266 1019.03 0 0
-206.449 245.034 993.753 0 0
-143.061 253.031 1026.19 0 0
-69.1906 240.037 973.487 0 0
-2.64532 238.124 965.731 0 0
-326.199 263.284 1056.06 0 0
-239.137 247.845 994.135 0 0
-174.262 252.275 1011.9 0 0
-102.848 246.841 990.106 0 0
-34.322 240.761 965.72 0 0
-277.632 255.991 1015.67 0 0
-203.789 250.536 994.027 0 0
-140.432 258.965 1027.47 0 0
-66.5017 245.256 973.079 0 0
-323.149 268.92 1055.52 0 0
-236.43 253.292 994.181 0 0
-171.181 257.334 1010.05 0 0
-99.557 250.78 984.322 0 0
-31.6031 245.426 963.307 0 0
-274.004 260.732 1012.52 0 0
-201.496 256.51 996.125 0 0
-136.751 262.905 1020.96 0 0
-63.6908 249.982 970.776 0 0
-319.722 274.226 1053.74 0 0
-233.187 258.145 991.946 0 0
-168.484 262.955 1010.43 0 0
-96.3283 254.738 978.853 0 0
-28.8698 249.825 959.975 0 0
-270.068 265.121 1008.16 0 0
-198.686 261.841 995.691 0 0
-132.517 265.593 1009.96 0 0
-60.4584 252.868 961.569 0 0
-301.405 266.346 1002.4 0 0
-230.175 263.223 990.648 0 0
-166.245 269.327 1013.62 0 0
-93.3004 259.111 975.172 0 0
-26.2322 254.941 959.479 0 0
-266.647 269.959 1005.65 0 0
-196.4 267.879 997.905 0 0
-128.886 269.296 1003.18 0 0
-57.7148 257.611 959.654 0 0
-312.093 284.047 1047.47 0 0
-227.604 268.801 991.247 0 0
-163.752 275.335 1015.34 0 0
-90.4435 263.884 973.113 0 0
-23.5984 260.064 959.025 0 0
-263.736 275.287 1005.03 0 0
-193.552 273.164 997.284 0 0
-125.243 272.818 996.02 0 0
-55.0123 262.479 958.272 0 0
-314.111 294.348 1064 0 0
-225.723 275.231 994.899 0 0
-161.047 281.008 1015.78 0 0
-87.5205 268.397 970.197 0 0
-20.9347 264.772 957.093 0 0
-260.873 280.657 1004.59 0 0
-191.343 279.371 999.986 0 0
-121.811 276.651 990.248 0 0
-52.2612 267.045 955.863 0 0
-307.067 296.175 1049.86 0 0
-223.151 280.855 995.558 0 0
-158.302 286.618 1015.98 0 0
-84.3945 272.172 964.778 0 0
-18.327 270.13 957.537 0 0
-369.271 323.361 1135.23 0 0
-258.438 286.494 1005.8 0 0
-188.83 285.17 1001.15 0 0
-118.491 280.613 985.153 0 0
-49.51 271.511 953.198 0 0
-307.31 305.004 1060.61 0 0
-220.731 286.689 996.916 0 0
-155.686 292.475 1017.04 0 0
-81.7814 277.528 965.062 0 0
-15.6995 275.185 956.915 0 0
-255.209 291.444 1003.91 0 0
-186.51 291.294 1003.39 0 0
-115.273 284.701 980.683 0 0
-46.8683 276.508 952.462 0 0
-303.889 310.269 1058.79 0 0
-218.051 292.199 997.121 0 0
-153.362 298.924 1020.07 0 0
-78.8642 281.806 961.656 0 0
-13.088 280.506 957.22 0 0
-251.953 296.33 1001.87 0 0
-183.994 297.146 1004.63 0 0
-112.042 288.646 975.895 0 0
-44.1858 281.212 950.762 0 0
-302.053 317.169 1062.51 0 0
-215.18 297.449 996.447 0 0
-150.082 303.506 1016.74 0 0
-75.9293 285.91 957.793 0 0
-10.4682 285.649 956.917 0 0
-248.967 301.508 1000.88 0 0
-181.449 302.973 1005.74 0 0
-108.779 292.379 970.577 0 0
-41.5537 286.181 950.002 0 0
-299.653 323.522 1064.3 0 0
-212.158 302.471 995.05 0 0
-146.321 307.004 1009.96 0 0
-73.0969 290.295 954.992 0 0
-7.84964 290.774 956.568 0 0
-246.419 307.214 1001.64 0 0
-178.834 308.704 1006.5 0 0
-105.611 296.24 965.866 0 0
-38.8825 290.818 948.185 0 0
-295.808 328.302 1060.95 0 0
-209.362 307.8 994.689 0 0
-143.205 311.752 1007.46 0 0
-70.4342 295.297 954.284 0 0
-334.189 334.79 1072.44 0 0
-243.851 312.907 1002.34 0 0
-176.277 314.553 1007.61 0 0
-102.621 300.496 962.585 0 0
-36.2383 295.574 946.816 0 0
-291.509 332.506 1055.88 0 0
-207.229 314.125 997.507 0 0
-140.411 317.168 1007.17 0 0
-67.82 300.488 954.203 0 0
-343.948 353.702 1113.52 0 0
-240.853 318.047 1001.27 0 0
-173.495 320.009 1007.45 0 0
-99.5696 304.474 958.542 0 0
-33.7061 301.249 948.389 0 0
-287.474 336.932 1051.67 0 0
-204.181 319.076 995.941 0 0
-136.675 320.372 999.986 0 0
-65.0298 304.852 951.541 0 0
-0.00549586 305.907 954.834 0 0
-237.829 323.131 1000.06 0 0
-170.995 326.002 1008.95 0 0
-96.9209 309.623 958.259 0 0
-31.0319 305.628 945.895 0 0
-282.612 340.289 1044.33 0 0
-201.781 325.04 997.533 0 0
-132.327 321.911 987.931 0 0
-62.2219 309.026 948.388 0 0
-302.187 327.246 995.948 0 0
-235.204 328.75 1000.53 0 0
-168.884 332.792 1012.83 0 0
-94.3699 315.09 958.953 0 0
-28.3714 309.981 943.403 0 0
-278.756 344.759 1040.59 0 0
-199.413 331.09 999.334 0 0
-128.882 325.43 982.251 0 0
-59.7126 314.648 949.708 0 0
-316.567 351.69 1052.83 0 0
-231.435 332.732 996.073 0 0
-167.032 340.196 1018.42 0 0
-91.3348 318.888 954.627 0 0
-25.8137 315.395 944.171 0 0
-274.752 348.974 1036.22 0 0
-196.858 336.855 1000.23 0 0
-125.441 328.819 976.368 0 0
-56.7914 318.019 944.3 0 0
-229.102 338.754 997.77 0 0
-163.987 345.214 1016.8 0 0
-88.6998 324.013 954.353 0 0
-23.146 319.357 940.639 0 0
-270.221 352.424 1029.74 0 0
-194.591 343.147 1002.64 0 0
-122.446 333.27 973.778 0 0
-54.1363 322.741 943.012 0 0
-226.791 344.842 999.606 0 0
-161.793 352.045 1020.49 0 0
-85.7888 328.074 951 0 0
-266.289 356.559 1025.45 0 0
-192.213 349.287 1004.53 0 0
-119.545 337.915 971.828 0 0
-51.5105 327.59 942.132 0 0
13.1366 334.354 961.586 0 0
-224.243 350.594 1000.43 0 0
-158.799 357.164 1019.18 0 0
-82.7938 331.689 946.479 0 0
-262.104 360.265 1020.07 0 0
-189.759 355.326 1006.08 0 0
-116.208 341.23 966.17 0 0
-48.892 332.446 941.299 0 0
15.7876 340.097 962.963 0 0
-220.965 355.19 997.974 0 0
-156.13 363.008 1019.94 0 0
-80.025 336.1 944.336 0 0
-258.919 365.281 1018.5 0 0
-186.92 360.654 1005.6 0 0
-113.229 345.481 963.296 0 0
-46.1671 336.485 938.211 0 0
-218.236 360.643 997.966 0 0
-152.775 367.22 1016.17 0 0
-77.2268 340.306 941.69 0 0
-255.937 370.563 1017.72 0 0
-184.493 366.79 1007.35 0 0
-110.288 349.771 960.614 0 0
-43.6495 341.982 939.222 0 0
-299.688 386.725 1054.19 0 0
-215.581 366.224 998.308 0 0
-148.585 369.266 1006.6 0 0
-74.5506 344.982 940.402 0 0
-252.627 375.341 1015.59 0 0
-182.008 372.848 1008.85 0 0
-107.296 353.813 957.343 0 0
-41.0318 346.69 938.07 0 0
-290.26 383.831 1030.94 0 0
-213.213 372.312 999.999 0 0
-143.661 369.186 991.603 0 0
-71.8216 349.352 938.331 0 0
-249.481 380.33 1014.09 0 0
-179.725 379.364 1011.52 0 0
-104.036 356.844 951.469 0 0
-38.36 350.835 935.446 0 0
-278.743 377.681 999.74 0 0
-210.267 377.396 998.988 0 0
-140.259 372.769 986.739 0 0
-69.0053 353.195 934.925 0 0
-246.459 385.483 1013.06 0 0
-177.926 386.995 1017.04 0 0
-101.13 360.955 948.604 0 0
-281.348 390.555 1019.07 0 0
-208.31 384.286 1002.71 0 0
-136.573 375.445 979.646 0 0
-66.4644 358.385 935.13 0 0
-243.623 390.913 1012.78 0 0
-174.722 391.604 1014.57 0 0
-97.8738 363.676 942.216 0 0
-277.693 394.889 1015.89 0 0
-205.664 389.946 1003.17 0 0
-132.832 377.777 971.868 0 0
-63.6533 362.047 931.4 0 0
-240.488 395.847 1011.24 0 0
-172.515 398.459 1017.91 0 0
-95.0719 367.951 939.978 0 0
-288.452 420.16 1065.91 0 0
-202.992 395.568 1003.52 0 0
-129.182 380.165 964.447 0 0
-61.0893 367.03 931.125 0 0
2.5847 373.518 947.585 0 0
-237.555 401.091 1010.53 0 0
-170.328 405.443 1021.49 0 0
-92.4156 372.738 939.094 0 0
-279.56 417.069 1043.59 0 0
-200.76 402.078 1006.08 0 0
-125.832 383.265 959.011 0 0
-58.3991 371.198 928.817 0 0
5.19808 380.398 951.836 0 0
-235.011 406.992 1011.46 0 0
-167.933 411.999 1023.91 0 0
-89.5518 376.624 935.992 0 0
-280.151 428.035 1056.58 0 0
-198.323 408.221 1007.67 0 0
-122.464 386.154 953.199 0 0
-55.8923 376.492 929.35 0 0
-232.865 413.62 1014.16 0 0
-165.334 418.103 1025.15 0 0
-86.7295 380.583 933.152 0 0
-279.135 436.74 1063.71 0 0
-195.643 413.888 1008.06 0 0
-119.325 389.622 948.956 0 0
-53.3403 381.489 929.146 0 0
-229.37 417.848 1010.97 0 0
-161.811 421.829 1020.6 0 0
-84.0023 384.876 931.196 0 0
-277.071 443.906 1066.96 0 0
-193.281 420.254 1010.11 0 0
-116.444 393.838 946.619 0 0
-50.7376 386.09 927.996 0 0
-226.166 422.552 1009.01 0 0
-156.207 419.845 1002.54 0 0
-81.4484 389.926 931.099 0 0
-272.766 447.462 1061.56 0 0
-190.976 426.796 1012.53 0 0
-113.374 397.323 942.61 0 0
-48.1696 390.908 927.392 0 0
-223.971 429.147 1011.55 0 0
-150.938 418.316 986.021 0 0
-78.649 393.743 928.098 0 0
-269.735 453.048 1061.05 0 0
-188.613 433.26 1014.71 0 0
-110.211 400.345 937.618 0 0
-221.258 434.78 1011.79 0 0
-146.873 419.792 976.91 0 0
-76.0137 398.301 926.898 0 0
-264.663 455.115 1052.42 0 0
-186.279 439.845 1017.11 0 0
-107.245 403.955 934.114 0 0
-218.674 440.677 1012.63 0 0
-142.875 421.22 967.919 0 0
-73.4388 403.142 926.378 0 0
-261.435 460.249 1051 0 0
-183.575 445.591 1017.53 0 0
-104.501 408.316 932.41 0 0
-216.531 447.504 1015.56 0 0
-139.211 423.414 960.89 0 0
-70.7732 407.438 924.634 0 0
-257.971 464.929 1048.6 0 0
-181.206 452.182 1019.85 0 0
-101.769 412.667 930.727 0 0
-246.603 394.573 884.466 0 0
-214.059 453.7 1017 0 0
-136.003 426.84 956.795 0 0
-68.3418 413.073 925.935 0 0
-330.027 475.366 1059.08 0 0
-254.456 469.465 1045.93 0 0
-178.675 458.418 1021.32 0 0
-98.8184 416.046 926.919 0 0
-288.471 471.846 1044.87 0 0
-212.011 460.852 1020.53 0 0
-132.567 429.414 950.911 0 0
-65.684 417.33 924.151 0 0
-250.761 473.604 1042.46 0 0
-175.912 464.077 1021.49 0 0
-96.3509 421.402 927.555 0 0
-208.728 465.33 1018.12 0 0
-129.396 432.699 946.726 0 0
-62.991 421.265 921.708 0 0
-246.226 476.044 1035.37 0 0
-173.432 470.506 1023.32 0 0
-93.6633 425.781 926.051 0 0
-206.139 471.34 1019.08 0 0
-126.411 436.504 943.76 0 0
-60.5464 426.832 922.85 0 0
-243.326 481.567 1035.07 0 0
-170.33 475.251 1021.5 0 0
-90.9288 429.883 923.986 0 0
695.894 626.705 1347.03 0 0
-203.735 477.805 1020.99 0 0
-123.382 440.059 940.333 0 0
-58.0209 431.855 922.802 0 0
-239.979 486.177 1032.85 0 0
-163.611 469.566 997.557 0 0
-88.2496 434.179 922.381 0 0
696.342 631.138 1340.8 0 0
-200.774 482.978 1020.13 0 0
-120.408 443.714 937.195 0 0
-237.691 492.934 1035.18 0 0
-157.095 463.83 974.059 0 0
-85.4495 437.793 919.381 0 0
-197.663 487.76 1018.47 0 0
-117.644 448.065 935.583 0 0
-234.629 498.098 1034.15 0 0
-152.374 462.904 961.082 0 0
-82.9647 442.97 919.694 0 0
-195.139 493.984 1019.82 0 0
-114.565 451.129 931.349 0 0
-231.832 503.817 1034.29 0 0
-149.521 467.449 959.626 0 0
-80.3634 447.512 918.696 0 0
-17.9257 456.218 936.569 0 0
-193.897 503.575 1028.02 0 0
-112.181 456.876 932.687 0 0
-228.89 509.215 1033.77 0 0
-146.449 471.253 956.698 0 0
-77.7713 452.063 917.741 0 0
-275.484 536.757 1083.67 0 0
-190.904 508.706 1027.03 0 0
-109.172 460.039 928.778 0 0
-225.647 513.917 1031.86 0 0
-143.255 474.563 952.842 0 0
-75.2659 457.1 917.779 0 0
-270.77 539.192 1076.7 0 0
-188.092 514.307 1027.01 0 0
-106.445 464.295 927.138 0 0
-223.122 520.248 1033.23 0 0
-139.938 477.342 948.016 0 0
-72.6978 461.74 917.03 0 0
-265.995 541.351 1069.34 0 0
-185.136 519.504 1026.18 0 0
-103.634 468.114 924.669 0 0
-219.789 524.68 1030.84 0 0
-136.583 479.843 942.747 0 0
-263.264 547.596 1070.12 0 0
-182.621 525.949 1027.81 0 0
-100.757 471.534 921.473 0 0
-216.872 530.073 1030.37 0 0
-133.679 483.814 940.449 0 0
-261.263 555.412 1073.92 0 0
-179.685 531.195 1027.09 0 0
-98.0881 475.845 920.069 0 0
-214.584 537.03 1032.91 0 0
-130.371 486.204 935.157 0 0
-255.82 555.833 1063.49 0 0
-170.219 516.601 988.425 0 0
-95.5731 480.874 920.068 0 0
-33.0075 485.403 928.732 0 0
-211.429 541.826 1031.29 0 0
-127.283 489.271 931.263 0 0
-250.64 556.6 1053.93 0 0
-163.412 509.214 964.207 0 0
-92.9175 485.169 918.677 0 0
-208.546 547.295 1030.98 0 0
-125.232 496.323 934.957 0 0
-59.8727 484.444 912.581 0 0
-247.181 561.049 1051.47 0 0
-159.564 510.603 956.931 0 0
-90.48 490.591 919.426 0 0
-205.836 553.224 1031.52 0 0
-122.416 500.37 932.973 0 0
-245.452 569.454 1056.4 0 0
-156.004 512.732 951.175 0 0
-87.8033 494.696 917.716 0 0
-203.91 561.321 1036.06 0 0
-119.369 503.376 929.107 0 0
-243.176 576.68 1059.07 0 0
-152.881 516.168 947.935 0 0
-85.255 499.48 917.288 0 0
-201.16 567.216 1036.48 0 0
-116.805 508.351 928.917 0 0
-238.003 576.947 1049.02 0 0
-149.148 517.388 940.731 0 0
-83.0454 506.31 920.589 0 0
706.547 740.435 1346.28 0 0
-293.669 625.059 1130.88 0 0
-200.73 579.826 1049.04 0 0
-114.433 514.177 930.27 0 0
-234.623 581.412 1046.74 0 0
-145.627 519.145 934.635 0 0
-284.261 617.517 1106.29 0 0
-196.768 582.32 1043.24 0 0
-111.848 519.069 929.922 0 0
-47.5252 510.731 914.984 0 0
-232.296 588.487 1049.15 0 0
-142.76 523.11 932.594 0 0
-277.632 615.574 1092.12 0 0
-194.113 588.62 1044.3 0 0
-108.572 520.631 923.674 0 0
-45.1595 517.284 917.737 0 0
-229.716 594.968 1050.46 0 0
-139.729 526.396 929.394 0 0
714.75 759.501 1340.96 0 0
-273.78 619.582 1088.67 0 0
-191.513 595.12 1045.69 0 0
-105.953 525.214 922.855 0 0
-43.1631 528.573 928.756 0 0
-228.106 604.052 1056.31 0 0
-136.352 528.235 923.725 0 0
-268.161 619.429 1078.04 0 0
-191.54 610.026 1061.68 0 0
-103.103 528.581 919.933 0 0
-224.897 608.956 1054.8 0 0
-133.375 531.483 920.604 0 0
631.357 775.282 1342.9 0 0
-263.717 621.792 1071.96 0 0
-179.929 587.4 1012.67 0 0
-100.465 532.958 918.81 0 0
-222.002 614.69 1054.74 0 0
-130.892 536.653 920.84 0 0
-258.153 621.312 1061.13 0 0
-169.935 568.752 971.363 0 0
-97.9445 537.929 918.721 0 0
-218.199 617.85 1050.31 0 0
-128.499 542.209 921.727 0 0
-256.787 630.883 1067.51 0 0
-165.227 567.017 959.441 0 0
-94.8491 539.628 913.097 0 0
-217.546 630.015 1061.13 0 0
-125.876 546.798 920.969 0 0
-255.491 640.787 1074.33 0 0
-162.518 571.958 958.932 0 0
-92.3465 544.581 913.031 0 0
-212.976 630.87 1052.88 0 0
-122.965 550.076 918.037 0 0
-250.265 640.799 1064.59 0 0
-158.014 570.402 947.638 0 0
-89.9673 550.285 914.216 0 0
-295.937 667.978 1104.73 0 0
-210.795 638.738 1056.37 0 0
-119.926 552.65 913.994 0 0
-246.529 644.459 1061.04 0 0
-152.457 564.596 929.549 0 0
