ply
format ascii 1.0
element vertex 1195
property float x
property float y
property float z
property float u
property float v
end_header
128.324 -65.0829 1145.08 1088.32 534.917
-18.5155 -61.0587 1128.56 941.484 538.941
26.4714 -58.2307 1076.29 986.471 541.769
70.4971 -58.1453 1074.71 1030.5 541.855
119.997 -60.9037 1125.69 1080 539.096
-25.2148 -59.2177 1152.77 934.785 540.782
20.6558 -55.4722 1079.86 980.656 544.528
64.4311 -55.0446 1071.53 1024.43 544.955
112.938 -57.3673 1116.75 1072.94 542.633
-32.2189 -57.3156 1178.45 927.781 542.684
14.814 -52.7398 1084.37 974.814 547.26
58.5067 -52.0565 1070.32 1018.51 547.943
105.039 -53.4025 1097.99 1065.04 546.597
-39.1516 -54.7804 1193.39 920.848 545.22
8.96493 -50.2185 1094.01 968.965 549.781
52.8297 -49.2935 1073.86 1012.83 550.706
98.3517 -50.0529 1090.4 1058.35 549.947
-45.2781 -51.0699 1183 914.722 548.93
3.02852 -47.9309 1110.29 963.029 552.069
46.9583 -46.3575 1073.84 1006.96 553.643
91.9863 -46.8663 1085.63 1051.99 553.134
-52.5333 -48.5646 1201.02 907.467 551.435
-3.06158 -45.1954 1117.7 956.938 554.805
41.0776 -43.4115 1073.58 1001.08 556.589
85.9622 -43.8534 1084.51 1045.96 556.147
-9.19909 -42.2653 1121.01 950.801 557.735
35.2928 -40.5738 1076.15 995.293 559.426
79.8012 -40.7703 1081.36 1039.8 559.23
-15.4344 -39.4744 1128.83 944.566 560.526
29.4426 -37.6744 1077.35 989.443 562.326
73.8976 -37.8187 1081.48 1033.9 562.181
124.887 -39.9446 1142.27 1084.89 560.055
-21.7274 -36.594 1135.19 938.273 563.406
23.601 -34.8006 1079.56 983.601 565.199
67.8573 -34.7968 1079.44 1027.86 565.203
119.819 -37.1876 1153.61 1079.82 562.812
-28.3497 -33.9902 1152.12 931.65 566.01
17.7968 -32.0253 1085.51 977.797 567.975
61.9474 -31.8418 1079.29 1021.95 568.158
110.69 -33.188 1124.92 1070.69 566.812
-35.696 -31.7737 1186.96 924.304 568.226
11.8933 -29.1337 1088.34 971.893 570.866
55.929 -28.8308 1077.02 1015.93 571.169
103.195 -29.7257 1110.45 1063.2 570.274
-42.6163 -28.821 1199.09 917.384 571.179
5.99278 -26.3756 1097.36 965.993 573.624
50.1326 -25.9342 1078.99 1010.13 574.066
96.0685 -26.4001 1098.38 1056.07 573.6
-0.00648153 -23.988 1126.08 959.994 576.012
44.3206 -23.0298 1081.1 1004.32 576.97
89.7021 -23.3038 1093.97 1049.7 576.696
-6.17057 -20.9369 1127.53 953.829 579.063
38.5114 -20.1276 1083.95 998.511 579.872
83.5726 -20.2774 1092.02 1043.57 579.723
-12.2844 -17.7821 1122.94 947.716 582.218
32.5183 -17.1292 1081.71 992.518 582.871
77.318 -17.229 1088.01 1037.32 582.771
-18.6362 -14.8826 1135.91 941.364 585.117
26.934 -14.3478 1095.1 986.934 585.652
71.3505 -14.2511 1087.72 1031.35 585.749
-25.3161 -12.0005 1157.4 934.684 588
21.217 -11.5006 1109.2 981.217 588.499
65.3905 -11.2756 1087.49 1025.39 588.724
-32.1845 -8.98787 1177.19 927.816 591.012
15.2582 -8.52744 1116.89 975.258 591.473
59.9802 -8.37771 1097.28 1019.98 591.622
-39.7308 -5.93606 1211.05 920.269 594.064
9.15788 -5.47781 1117.56 969.158 594.522
54.3078 -5.41089 1103.91 1014.31 594.589
105.093 -5.71107 1165.15 1065.09 594.289
3.04448 -2.41997 1116.14 963.044 597.58
48.3081 -2.39518 1104.71 1008.31 597.605
96.6552 -2.47329 1140.74 1056.66 597.527
-3.06075 0.631639 1117.39 956.939 600.632
42.3392 0.625512 1106.55 1002.34 600.625
90.3194 0.644125 1139.48 1050.32 600.644
-9.32016 3.74657 1135.77 950.68 603.747
36.4187 3.66316 1110.48 996.419 603.663
83.5503 3.73469 1132.17 1043.55 603.735
-15.8496 6.99244 1159.2 944.15 606.992
30.4116 6.71265 1112.81 990.412 606.713
77.1921 6.81448 1129.7 1037.19 606.814
-22.3754 10.2474 1169.05 937.625 610.247
24.441 9.79976 1117.98 984.441 609.8
70.8853 9.88417 1127.61 1030.89 609.884
-29.3902 13.7344 1194.4 930.61 613.734
18.3304 12.8566 1118.06 978.33 612.857
-94.3667 18.8965 1327.71 865.633 618.896
-36.3886 17.2211 1209.99 923.611 617.221
12.2788 15.9917 1123.61 972.279 615.992
58.5022 16.0338 1126.57 1018.5 616.034
-98.1325 21.7515 1282.08 861.867 621.752
-44.2755 21.1358 1245.78 915.724 621.136
6.16522 19.1533 1128.93 966.165 619.153
51.3496 18.7504 1105.18 1011.35 618.75
-103.263 24.8049 1259.18 856.737 624.805
-51.3217 24.6542 1251.53 908.678 624.654
-0.00657485 22.5024 1142.3 959.993 622.502
45.073 21.6585 1099.46 1005.07 621.659
-110.026 28.2158 1257.79 849.974 628.216
-58.2697 28.1264 1253.81 901.73 628.126
-6.33128 25.9524 1156.9 953.669 625.952
39.1663 24.7294 1102.38 999.166 624.729
89.4062 26.2069 1168.24 1049.41 626.207
-116.85 31.6398 1257.23 843.15 631.64
-65.2303 31.6051 1255.86 894.77 631.605
-12.7936 29.4316 1169.49 947.206 629.432
33.4002 27.9607 1111.05 993.4 627.961
81.8109 28.9722 1151.24 1041.81 628.972
-122.998 34.8707 1249.86 837.002 634.871
-72.1699 35.0738 1257.14 887.83 635.074
-19.5166 33.1887 1189.58 940.483 633.189
27.7241 31.4489 1127.22 987.724 631.449
75.1752 31.9736 1146.02 1035.18 631.974
-129.612 38.2226 1247.76 830.388 638.223
-78.5195 38.2553 1248.83 881.48 638.255
-26.648 37.32 1218.29 933.352 637.32
21.7394 34.8146 1136.51 981.739 634.815
69.0331 35.1689 1148.07 1029.03 635.169
-135.92 41.4766 1243.06 824.08 641.477
-85.3078 41.6499 1248.26 874.692 641.65
-33.7485 41.1875 1234.4 926.252 641.187
15.4865 37.824 1133.59 975.487 637.824
62.8273 38.3501 1149.36 1022.83 638.35
-142.155 44.698 1238.17 817.845 644.698
-91.7145 44.8578 1242.6 868.285 644.858
-40.5614 44.6327 1236.37 919.439 644.633
9.3458 41.1716 1140.49 969.346 641.172
56.306 41.3172 1144.52 1016.31 641.317
-148.545 47.9603 1235.03 811.455 647.96
-97.9589 47.9856 1235.68 862.041 647.986
-47.4211 48.1143 1239 912.579 648.114
3.15748 44.9523 1157.57 963.157 644.952
49.4148 43.8824 1130.02 1009.41 643.882
-154.599 51.1055 1229.48 805.401 651.106
-104.606 51.3103 1234.41 855.394 651.31
-54.1245 51.4345 1237.39 905.876 651.434
-3.20451 48.6279 1169.87 956.795 648.628
43.2495 46.9847 1130.34 1003.25 646.985
-160.723 54.2646 1224.93 799.276 654.265
-111.517 54.7644 1236.21 848.483 654.764
-60.805 54.7411 1235.69 899.195 654.741
-9.73216 52.5389 1185.97 950.268 652.539
37.5508 50.7238 1145 997.551 650.724
-166.434 57.2737 1217.72 793.566 657.274
-117.93 57.9737 1232.6 842.07 657.974
-67.3812 57.9647 1232.41 892.619 657.965
-16.5184 56.8218 1208.11 943.482 656.822
31.4632 54.1496 1151.3 991.463 654.15
-172.431 60.3708 1213.07 787.569 660.371
-124.192 61.1084 1227.89 835.808 661.108
-74.2518 61.4436 1234.62 885.748 661.444
-23.4147 60.8826 1223.35 936.585 660.883
25.2367 57.4501 1154.38 985.237 657.45
-177.466 63.1189 1202.25 782.534 663.119
-129.826 63.9333 1217.77 830.174 663.933
-80.4568 64.3826 1226.32 879.543 664.383
-30.1097 64.2417 1223.64 929.89 664.242
19.0299 60.9387 1160.73 979.03 660.939
-184.338 66.5134 1204.21 775.662 666.513
-136.219 67.132 1215.41 823.781 667.132
-86.8963 67.529 1222.6 873.104 667.529
-36.9282 67.8235 1227.93 923.072 667.824
12.7755 64.5717 1169.06 972.775 664.572
-190.255 69.5612 1200.01 769.745 669.561
-141.755 69.9077 1205.98 818.245 669.908
-93.5165 70.8228 1221.77 866.483 670.823
-43.4622 70.8881 1222.9 916.538 670.888
6.35519 67.4577 1163.72 966.355 667.458
55.8736 69.7087 1202.55 1015.87 669.709
-196.648 72.7796 1198.99 763.352 672.78
-147.95 73.0075 1202.74 812.05 673.007
-100.242 74.1964 1222.33 859.758 674.196
-50.1953 74.3013 1224.06 909.805 674.301
-0.00675277 71.2145 1173.21 959.993 671.215
48.63 72.0045 1186.22 1008.63 672.005
-202.602 75.8319 1195.44 757.398 675.832
-153.867 75.9703 1197.62 806.133 675.97
-106.03 76.8893 1212.11 853.97 676.889
-56.8045 77.5346 1222.28 903.195 677.535
-6.58645 76.3449 1203.53 953.414 676.345
41.8862 74.7849 1178.94 1001.89 674.785
-209.921 79.3959 1199.92 750.079 679.396
-160.125 79.1011 1195.47 799.875 679.101
-112.569 80.1403 1211.17 847.431 680.14
-63.2488 80.5728 1217.71 896.751 680.573
-13.3926 81.0053 1224.24 946.607 681.005
35.2156 77.511 1171.43 995.216 677.511
92.0478 85.7063 1295.29 1052.05 685.706
-217.699 83.1412 1206.67 742.301 683.141
-165.672 81.88 1188.37 794.328 681.88
-118.569 83.016 1204.86 841.431 683.016
-69.5283 83.4482 1211.13 890.472 683.448
-19.983 83.922 1218.01 940.017 683.922
28.7852 80.6391 1170.36 988.785 680.639
84.0849 88.3208 1281.85 1044.08 688.321
-225.968 87.084 1215.67 734.032 687.084
-171.923 85.007 1186.68 788.077 685.007
-124.463 85.8314 1198.19 835.537 685.831
-76.356 86.9941 1214.42 883.644 686.994
-26.709 87.4715 1221.08 933.291 687.471
22.5342 84.3897 1178.06 982.534 684.39
76.3785 90.9921 1270.23 1036.38 690.992
-239.016 92.8952 1249.13 720.984 692.895
-178.015 88.0553 1184.05 781.985 688.055
-130.743 88.923 1195.72 829.257 688.923
-82.6017 89.8855 1208.66 877.398 689.886
-33.2861 90.5417 1217.48 926.714 690.542
16.3046 88.7568 1193.48 976.305 688.757
69.007 93.8829 1262.41 1029.01 693.883
-184.096 91.0979 1181.53 775.904 691.098
-137.175 92.1208 1194.8 822.825 692.121
-88.9048 92.8713 1204.54 871.095 692.871
-39.7272 93.365 1210.94 920.273 693.365
9.95897 93.7027 1215.32 969.959 693.703
61.7679 96.8044 1255.55 1021.77 696.804
-190.067 94.0855 1178.5 769.933 694.086
-143.074 94.9667 1189.54 816.926 694.967
-94.9862 95.6566 1198.18 865.014 695.657
-46.0579 96.0716 1203.38 913.942 696.072
3.31733 97.093 1216.17 963.317 697.093
54.5846 99.6533 1248.24 1014.58 699.653
109.576 103.245 1293.23 1069.58 703.245
-196.296 97.2011 1177.22 763.704 697.201
-149.268 98.0154 1187.08 810.732 698.015
-101.27 98.672 1195.04 858.73 698.672
-52.7893 99.6491 1206.87 907.211 699.649
-3.32976 100.37 1215.6 956.67 700.37
47.5651 102.643 1243.13 1007.57 702.643
102.05 106.304 1287.47 1062.05 706.304
-202.621 100.364 1176.58 757.379 700.364
-155.166 100.875 1182.57 804.834 700.875
-107.371 101.53 1190.24 852.629 701.53
-59.2514 102.713 1204.11 900.749 702.713
-9.95137 103.444 1212.69 950.049 703.444
40.423 105.141 1232.58 1000.42 705.141
94.2616 108.957 1277.31 1054.26 708.957
-210.391 104.243 1184.11 749.609 704.243
-160.981 103.689 1177.81 799.019 703.689
-114.022 104.916 1191.75 845.978 704.916
-65.6211 105.661 1200.22 894.379 705.661
-16.5587 106.616 1211.06 943.441 706.616
33.4403 107.723 1223.64 993.44 707.723
86.5205 111.471 1266.21 1046.52 711.471
-216.592 107.345 1182.62 743.408 707.345
-167.312 106.84 1177.06 792.688 706.84
-119.97 107.665 1186.14 840.03 707.665
-71.8589 108.453 1194.84 888.141 708.453
-23.0749 109.43 1205.6 936.925 709.43
26.5923 110.41 1216.39 986.592 710.41
79.1945 114.349 1259.79 1039.19 714.349
-223.23 110.663 1183.54 736.77 710.663
-173.661 110.003 1176.47 786.339 710.003
-126.128 110.621 1183.09 833.872 710.621
-78.3941 111.724 1194.88 881.606 711.724
-29.6564 112.69 1205.22 930.344 712.69
19.9829 113.965 1218.86 979.983 713.965
71.8311 117.017 1251.49 1031.83 717.017
126.158 119.881 1282.12 1086.16 719.881
-229.936 114.015 1184.75 730.064 714.015
-179.457 112.819 1172.33 780.543 712.819
-132.265 113.571 1180.13 827.735 713.571
-84.4331 114.322 1187.94 875.567 714.322
-36.1397 115.647 1201.71 923.86 715.647
13.2918 117.052 1216.31 973.292 717.052
64.5704 119.661 1243.43 1024.57 719.661
118.2 122.403 1271.92 1078.2 722.403
-237.022 117.556 1187.81 722.978 717.556
-186.009 116.113 1173.23 773.991 716.113
-138.64 116.732 1179.48 821.36 716.732
-90.9708 117.626 1188.51 869.029 717.626
-42.7297 118.989 1202.29 917.27 718.989
6.63245 120.196 1214.49 966.632 720.196
57.543 122.571 1238.48 1017.54 722.571
110.852 125.433 1267.4 1070.85 725.433
-243.776 120.932 1189.07 716.224 720.932
-192.147 119.149 1171.54 767.853 719.149
-144.867 119.773 1177.68 815.133 719.773
-97.1715 120.506 1184.89 862.828 720.506
-49.1734 121.955 1199.14 910.827 721.955
-0.00696321 123.036 1209.77 959.993 723.036
50.5498 125.404 1233.05 1010.55 725.404
103.394 128.241 1260.94 1063.39 728.241
-252.692 125.38 1200.55 707.308 725.38
-198.468 122.299 1171.05 761.532 722.299
-151.011 122.753 1175.39 808.989 722.753
-103.633 123.726 1184.71 856.367 723.726
-55.5388 124.806 1195.05 904.461 724.806
-6.60835 126.109 1207.53 953.392 726.109
43.6126 128.197 1227.53 1003.61 728.197
96.1023 131.144 1255.74 1056.1 731.144
-266.161 132.089 1232.53 693.839 732.089
-204.509 125.279 1168.99 755.491 725.279
-156.442 125.17 1167.97 803.558 725.17
-109.619 126.399 1179.43 850.38 726.399
-61.8283 127.569 1190.36 898.172 727.569
-13.1711 129.031 1203.99 946.829 729.031
36.7978 131.182 1224.07 996.798 731.182
88.751 133.843 1248.9 1048.75 733.843
-212.316 129.337 1176.84 747.684 729.337
-163.19 128.649 1170.57 796.81 728.649
-115.972 129.517 1178.47 844.028 729.517
-68.4112 130.968 1191.67 891.589 730.968
-19.7114 132.043 1201.45 940.289 732.043
30.0043 134.073 1219.93 990.004 734.073
81.6086 136.73 1244.1 1041.61 736.73
-218.515 132.412 1175.57 741.485 732.412
-169.284 131.611 1168.46 790.716 731.611
-121.848 132.123 1173.01 838.152 732.123
-74.5872 133.618 1186.28 885.413 733.618
-26.1296 134.554 1194.6 933.87 734.554
23.2189 136.724 1213.85 983.219 736.724
74.2891 139.16 1235.48 1034.29 739.159
128.398 143.005 1269.62 1088.4 743.005
-224.895 135.597 1175.33 735.105 735.597
-176.058 135.101 1171.03 783.942 735.101
-128.193 135.258 1172.39 831.807 735.258
-80.9188 136.601 1184.03 879.081 736.601
-32.6908 137.949 1195.71 927.309 737.949
16.5493 139.757 1211.39 976.549 739.757
67.2849 142.009 1230.91 1027.28 742.009
121.031 145.961 1265.16 1081.03 745.961
-231.255 138.771 1175 728.745 738.771
-181.926 137.897 1167.6 778.074 737.897
-134.049 137.894 1167.57 825.951 737.894
-87.0321 139.262 1179.16 872.968 739.262
-39.0953 140.741 1191.68 920.905 740.741
9.89105 142.554 1207.03 969.891 742.554
60.3642 144.914 1227.01 1020.36 744.914
113.259 148.299 1255.67 1073.26 748.299
-238.139 142.257 1177.27 721.861 742.257
-188.474 141.213 1168.63 771.526 741.213
-140.632 141.286 1169.23 819.368 741.286
-93.2803 142.184 1176.66 866.72 742.184
-45.6204 144.031 1191.95 914.38 744.031
3.2786 145.242 1201.98 963.279 745.242
53.6071 148.132 1225.89 1013.61 748.132
106.011 151.185 1251.16 1066.01 751.185
-244.861 145.646 1178.65 715.139 745.646
-193.81 143.627 1162.31 766.19 743.627
-146.702 144.166 1166.68 813.298 744.166
-99.5467 145.157 1174.7 860.453 745.157
-51.8265 146.413 1184.86 908.173 746.413
-3.27961 147.949 1197.29 956.72 747.949
46.6097 150.528 1218.16 1006.61 750.528
98.3873 153.383 1241.26 1058.39 753.383
-251.914 149.228 1181.51 708.086 749.228
-200.672 147.176 1165.26 759.328 747.176
-153.3 147.567 1168.35 806.7 747.567
-106.087 148.534 1176.01 853.913 748.534
-58.225 149.449 1183.25 901.775 749.449
-9.80526 150.917 1194.88 950.195 750.917
39.7869 153.229 1213.19 999.787 753.229
91.3253 156.303 1237.52 1051.33 756.303
-258.961 152.805 1184.2 701.039 752.805
-207.216 150.487 1166.24 752.784 750.487
-159.5 150.583 1166.98 800.5 750.583
-112.207 151.333 1172.79 847.792 751.333
-64.4808 152.181 1179.36 895.519 752.181
-16.2995 153.825 1192.1 943.701 753.825
33.0318 155.965 1208.69 993.032 755.965
84.2764 159.15 1233.37 1044.28 759.15
137.802 162.638 1260.4 1097.8 762.638
-268.574 157.887 1198.21 691.426 757.887
-213.843 153.856 1167.61 746.157 753.856
-166.132 154.007 1168.76 793.868 754.007
-118.352 154.19 1170.15 841.648 754.19
-70.9576 155.469 1179.85 889.042 755.469
-22.7904 156.903 1190.74 937.21 756.903
26.3236 158.664 1204.1 986.324 758.664
77.1772 161.774 1227.7 1037.18 761.774
130.805 165.948 1259.38 1090.8 765.948
-282.276 165.352 1229.35 677.724 765.352
-220.333 157.124 1168.18 739.667 757.124
-172.075 156.795 1165.73 787.925 756.795
-124.274 156.79 1165.69 835.726 756.79
-77.0499 157.96 1174.4 882.95 757.96
-29.138 159.273 1184.15 930.862 759.273
19.6901 161.538 1200.99 979.69 761.537
69.9906 164.017 1219.43 1029.99 764.017
123.399 168.679 1254.08 1083.4 768.679
-227.012 160.524 1169.69 732.988 760.524
-178.997 160.473 1169.32 781.003 760.473
-130.714 160.058 1166.29 829.286 760.058
-83.1884 160.626 1170.43 876.812 760.626
-35.6547 162.706 1185.58 924.345 762.706
13.0928 164.423 1198.1 973.093 764.423
63.2946 167.272 1218.86 1023.29 767.272
115.943 171.22 1247.62 1075.94 771.22
-232.759 163.267 1166.44 727.241 763.267
-185.313 163.603 1168.84 774.687 763.603
-136.537 162.588 1161.59 823.463 762.588
-89.3525 163.397 1167.37 870.647 763.397
-41.9327 165.146 1179.86 918.067 765.146
6.52158 167.151 1194.19 966.522 767.151
56.4171 169.959 1214.25 1016.42 769.959
108.131 173.044 1236.29 1068.13 773.044
-239.695 166.845 1169.17 720.305 766.845
-191.165 166.33 1165.56 768.835 766.33
-143.134 166.049 1163.59 816.866 766.049
-95.7522 166.619 1167.59 864.248 766.619
-48.412 168.472 1180.57 911.588 768.472
-0.00686925 170.309 1193.44 959.993 770.309
49.6269 172.748 1210.54 1009.63 772.748
101.247 176.205 1234.76 1061.25 776.205
-245.764 169.818 1167.64 714.236 769.818
-196.211 168.377 1157.73 763.789 768.377
-149.371 169.089 1162.62 810.629 769.089
-101.866 169.363 1164.51 858.134 769.363
-54.616 170.917 1175.19 905.384 770.917
-6.49797 172.686 1187.36 953.502 772.686
42.6997 174.791 1201.83 1002.7 774.791
94.2713 179.152 1231.82 1054.27 779.152
-252.809 173.463 1170.7 707.191 773.463
-203.491 172.348 1163.17 756.509 772.348
-156.531 173.156 1168.63 803.469 773.156
-108.349 172.732 1165.76 851.651 772.732
-60.9628 173.907 1173.69 899.037 773.907
-12.9665 175.626 1185.3 947.033 775.626
36.056 177.714 1199.39 996.056 777.714
87.1657 181.745 1226.59 1047.17 781.745
141.325 186.858 1261.1 1101.32 786.858
-259.231 176.678 1170.8 700.769 776.678
-209.659 175.367 1162.11 750.341 775.367
-162.877 176.305 1168.32 797.123 776.305
-113.999 174.809 1158.41 846.001 774.809
-67.0635 176.285 1168.2 892.936 776.285
-19.3295 177.791 1178.17 940.671 777.791
29.4076 180.431 1195.67 989.408 780.431
80.1433 184.368 1221.76 1040.14 784.368
133.462 188.933 1252.01 1093.46 788.933
-266.563 180.509 1174.9 693.437 780.509
-215.917 178.465 1161.6 744.083 778.465
-169.654 179.912 1171.02 790.346 779.912
-120.748 178.592 1162.42 839.252 778.592
-73.3668 179.276 1166.87 886.633 779.276
-25.7981 181.206 1179.44 934.202 781.206
22.8396 183.447 1194.02 982.84 783.447
73.0278 186.593 1214.5 1033.03 786.593
125.78 191.084 1243.74 1085.78 791.084
-273.35 183.966 1176.47 686.65 783.966
-222.094 181.499 1160.69 737.906 781.499
-175.618 182.657 1168.1 784.382 782.657
-126.672 181.153 1158.48 833.328 781.153
-79.3834 181.635 1161.57 880.617 781.635
-32.0354 183.226 1171.74 927.965 783.226
16.2597 186.111 1190.19 976.26 786.111
66.1636 189.27 1210.39 1026.16 789.27
118.893 194.34 1242.81 1078.89 794.34
-283.999 190.003 1194.2 676.001 790.003
-228.172 184.455 1159.33 731.828 784.455
-182.624 186.484 1172.08 777.376 786.484
-133.217 184.613 1160.32 826.783 784.613
-85.7548 184.856 1161.86 874.245 784.856
-38.3412 185.944 1168.69 921.659 785.944
9.74704 189.248 1189.46 969.747 789.248
59.3893 192.07 1207.2 1019.39 792.07
111.767 197.152 1239.14 1071.77 797.152
-302.791 201.425 1244.61 657.209 801.425
-233.964 187.187 1156.64 726.036 787.187
-188.7 189.355 1170.03 771.3 789.355
-139.3 187.434 1158.16 820.7 787.434
-91.9723 187.758 1160.16 868.028 787.758
-44.6204 188.674 1165.82 915.38 788.674
3.23001 191.642 1184.16 963.23 791.642
52.5521 194.491 1201.76 1012.55 794.491
104.421 199.446 1232.38 1064.42 799.446
-240.235 190.308 1156.39 719.765 790.308
-193.807 191.28 1162.3 766.193 791.28
-146.089 191.199 1161.8 813.911 791.199
-98.0815 190.477 1157.41 861.918 790.477
-51.0565 192.096 1167.25 908.944 792.096
-3.23671 194.463 1181.63 956.763 794.463
45.9098 197.464 1199.87 1005.91 797.464
97.277 201.971 1227.26 1057.28 801.971
151.659 207.531 1261.04 1111.66 807.531
-246.607 193.508 1156.62 713.393 793.508
-200.077 194.376 1161.81 759.923 794.376
-153.391 195.586 1169.04 806.609 795.586
-104.19 193.234 1154.98 855.81 793.234
-57.2532 194.66 1163.51 902.747 794.66
-9.6513 196.77 1176.12 950.349 796.77
39.1734 199.842 1194.48 999.173 799.842
89.5853 203.098 1213.94 1049.59 803.098
143.637 209.334 1251.21 1103.64 809.334
-253.582 197.177 1159.6 706.418 797.177
-206.01 197.151 1159.45 753.99 797.151
-160.732 199.964 1176 799.268 799.964
-110.579 196.525 1155.77 849.421 796.525
-63.5148 197.532 1161.69 896.485 797.532
-16.0277 199.322 1172.22 943.972 799.322
32.5685 202.641 1191.74 992.568 802.641
82.9604 206.445 1214.11 1042.96 806.445
136.686 212.581 1250.2 1096.69 812.581
-259.95 200.368 1159.73 700.05 800.368
-211.861 199.861 1156.79 748.139 799.861
-166.931 202.898 1174.37 793.069 802.898
-116.921 199.723 1156 843.079 799.723
-69.6261 200.019 1157.71 890.374 800.019
-22.3636 201.872 1168.44 937.636 801.872
25.923 204.868 1185.77 985.923 804.868
75.9084 208.625 1207.52 1035.91 808.625
129.165 214.857 1243.59 1089.17 814.857
-266.391 203.615 1160.17 693.609 803.615
-218.152 202.991 1156.61 741.848 802.991
-173.584 206.386 1175.96 786.416 806.386
-123.543 203.382 1158.84 836.457 803.382
-75.9494 203.168 1157.62 884.051 803.168
-28.6675 204.469 1165.03 931.333 804.469
19.4396 208.099 1185.72 979.44 808.099
69.0763 211.22 1203.5 1029.08 811.22
121.932 217.481 1239.18 1081.93 817.481
-272.665 206.735 1159.88 687.335 806.735
-223.485 205.244 1151.51 736.515 805.244
-179.679 209.212 1173.78 780.321 809.212
-130.06 206.838 1160.46 829.94 806.838
-82.0084 205.657 1153.83 877.992 805.657
-34.9449 207.11 1161.98 925.055 807.11
12.9049 210.483 1180.91 972.905 810.483
62.1325 213.258 1196.48 1022.13 813.258
113.943 218.538 1226.1 1073.94 818.538
-279.731 210.451 1162.89 680.269 810.451
-230.017 208.607 1152.7 729.983 808.607
-187.096 213.562 1180.08 772.904 813.562
-136.845 210.688 1164.21 823.155 810.688
-88.4283 209.075 1155.29 871.572 809.075
-41.2591 210.092 1160.91 918.741 810.092
6.4281 213.016 1177.07 966.428 813.016
55.5468 216.355 1195.52 1015.55 816.355
106.556 220.475 1218.28 1066.56 820.475
-286.781 214.147 1165.71 673.219 814.147
-235.751 211.248 1149.93 724.249 811.248
-192.704 215.843 1174.94 767.296 815.843
-143.516 214.329 1166.7 816.484 814.329
-94.5837 211.874 1153.34 865.416 811.874
-47.3302 212.031 1154.19 912.67 812.031
-0.00674578 215.301 1171.99 959.993 815.301
48.755 218.475 1189.27 1008.76 818.475
99.4771 222.867 1213.18 1059.48 822.867
155.441 232.159 1263.76 1115.44 832.159
-300.44 222.735 1194.68 659.56 822.735
-242.441 214.749 1151.85 717.559 814.749
-197.543 217.311 1165.59 762.457 817.311
-150.844 218.897 1174.1 809.156 818.897
-101.21 215.71 1157 858.79 815.71
-53.5456 214.807 1152.16 906.454 814.807
-6.41129 218.417 1171.52 953.589 818.417
42.1639 221.256 1186.75 1002.16 821.256
92.5059 225.357 1208.75 1052.51 825.357
147.956 234.699 1258.86 1107.96 834.699
-315.455 232.246 1227.7 644.545 832.246
-248.201 217.427 1149.36 711.799 817.427
-202.94 219.443 1160.02 757.06 819.443
-158.472 223.814 1183.13 801.528 823.814
-107.199 218.189 1153.39 852.801 818.189
-59.7092 217.464 1149.56 900.291 817.464
-12.7528 220.528 1165.76 947.247 820.528
35.3839 222.661 1177.03 995.384 822.661
85.1811 226.753 1198.66 1045.18 826.753
139.812 236.01 1247.6 1099.81 836.01
-255.135 221.133 1152.3 704.865 821.133
-209.084 222.403 1158.92 750.917 822.403
-166.432 229.102 1193.83 793.568 829.102
-113.551 221.433 1153.87 846.449 821.433
-66.1352 221.08 1152.02 893.865 821.08
-19.0703 223.066 1162.38 940.93 823.066
28.9182 225.637 1175.77 988.918 825.637
78.1495 228.629 1191.36 1038.15 828.629
130.954 235.752 1228.48 1090.95 835.752
-262.229 224.964 1155.8 697.771 824.964
-214.818 224.942 1155.69 745.182 824.942
-173.156 232.63 1195.18 786.844 832.63
-119.907 224.677 1154.33 840.093 824.677
-72.1775 223.437 1147.96 887.823 823.437
-25.3195 225.306 1157.56 934.681 825.306
22.3724 227.65 1169.6 982.372 827.65
71.2325 230.578 1184.65 1031.23 830.578
122.591 235.94 1212.19 1082.59 835.94
-268.388 227.988 1155.11 691.612 827.988
-220.621 227.569 1152.99 739.379 827.569
-180.16 236.514 1198.31 779.84 836.514
-126.786 228.858 1159.52 833.214 828.858
-78.5829 226.95 1149.86 881.417 826.95
-31.6292 228.336 1156.88 928.371 828.336
15.974 230.783 1169.28 975.974 830.783
64.7311 233.726 1184.19 1024.73 833.726
115.409 238.109 1206.39 1075.41 838.109
-274.153 230.683 1152.8 685.847 830.683
-225.816 229.594 1147.36 734.184 829.594
-186.45 239.455 1196.64 773.55 839.455
-133.61 232.873 1163.75 826.39 832.873
-84.7302 229.716 1147.97 875.27 829.716
-37.8806 231.053 1154.65 922.119 831.053
9.56101 233.474 1166.75 969.561 833.474
58.08 236.242 1180.58 1018.08 836.242
108.193 240.029 1199.51 1068.19 840.029
-282.18 235.272 1159.89 677.82 835.272
-232.339 232.982 1148.6 727.661 832.982
-193.169 242.948 1197.73 766.831 842.948
-141.212 238.145 1174.06 818.788 838.145
-91.1758 233.289 1150.12 868.824 833.289
-44.1312 233.881 1153.04 915.869 833.881
3.18002 236.477 1165.84 963.18 836.477
51.5704 239.211 1179.31 1011.57 839.211
101.788 243.674 1201.31 1061.79 843.674
-290.171 239.806 1166.53 669.829 839.806
-238.102 235.61 1146.12 721.898 835.61
-198.928 245.25 1193.01 761.072 845.25
-147.952 241.88 1176.62 812.048 841.88
-97.4823 236.479 1150.34 862.518 836.479
-50.2855 236.332 1149.63 909.715 836.332
-3.18827 239.276 1163.95 956.812 839.276
44.9081 241.279 1173.69 1004.91 841.279
95.6451 248.058 1206.67 1055.65 848.058
154.892 264.762 1287.92 1114.89 864.762
-296.165 242.681 1165.02 663.835 842.681
-245.765 240.108 1152.67 714.235 840.108
-203.352 245.973 1180.82 756.648 845.973
-154.721 245.631 1179.18 805.279 845.631
-104.135 240.464 1154.38 855.865 840.464
-56.5093 239.216 1148.39 903.491 839.216
-9.5469 242.343 1163.4 950.453 842.343
38.4336 244.118 1171.92 998.434 844.118
88.7443 250.498 1202.55 1048.74 850.498
147.318 267.314 1283.27 1107.32 867.314
-304.271 247.276 1171.71 655.729 847.276
-251.511 242.723 1150.13 708.489 842.723
-207.186 246.087 1166.07 752.814 846.087
-161.471 249.322 1181.4 798.529 849.322
-110.418 243.557 1154.08 849.582 843.557
-62.6382 241.779 1145.66 897.362 841.779
-15.8495 244.634 1159.19 944.151 844.634
31.8958 246.309 1167.12 991.896 846.309
81.8068 252.663 1197.23 1041.81 852.663
136.945 264.342 1252.57 1096.95 864.342
-313.183 252.5 1181.16 646.817 852.5
-256.54 244.667 1144.52 703.46 844.667
-212.23 247.721 1158.81 747.77 847.721
-169.141 254.373 1189.92 790.859 854.373
-117.179 247.666 1158.55 842.821 847.666
-69.0521 245.447 1148.16 890.948 845.447
-22.1603 247.509 1157.81 937.84 847.509
25.4837 249.191 1165.68 985.484 849.191
75.0367 255.17 1193.65 1035.04 855.17
128.785 265.065 1239.94 1088.79 865.065
-325.066 260.07 1201.21 634.934 860.07
-262.331 247.356 1142.49 697.669 847.356
-217.64 249.826 1153.9 742.36 849.826
-177.401 260.2 1201.81 782.599 860.2
-123.511 250.83 1158.53 836.489 850.83
-74.9918 247.472 1143.03 885.008 847.472
-28.3789 249.697 1153.3 931.621 849.697
19.0532 251.612 1162.15 979.053 851.612
68.3418 257.794 1190.7 1028.34 857.794
120.938 266.101 1229.07 1080.94 866.101
-269.163 251.025 1144.98 690.837 851.025
-224.684 253.812 1157.69 735.316 853.812
-184.638 264.441 1206.17 775.362 864.441
-130.334 254.955 1162.9 829.666 854.955
-81.4719 251.31 1146.28 878.528 851.31
-34.6047 252.273 1150.67 925.395 852.273
12.7021 254.833 1162.35 972.702 854.833
61.6189 260.147 1186.59 1021.62 860.147
113.333 267.373 1219.54 1073.33 867.373
-275.368 254.105 1144.75 684.632 854.105
-230.848 256.793 1156.87 729.152 856.793
-191.79 268.519 1209.69 768.21 868.519
-136.174 257.156 1158.5 823.826 857.156
-87.5671 253.947 1144.04 872.433 853.947
-40.7505 254.514 1146.6 919.25 854.514
6.32332 257.019 1157.88 966.323 857.019
54.8066 261.837 1179.59 1014.81 861.837
106.134 269.355 1213.46 1066.13 869.355
-281.358 256.989 1143.66 678.642 856.989
-236.274 258.97 1152.48 723.726 858.97
-199.034 272.69 1213.54 760.966 872.69
-142.719 260.709 1160.22 817.281 860.709
-93.7748 256.946 1143.47 866.225 856.946
-47.0385 257.756 1147.08 912.961 857.756
-0.00665824 259.937 1156.78 959.993 859.937
48.3107 264.802 1178.43 1008.31 864.802
98.6066 270.223 1202.56 1058.61 870.224
159.997 292.3 1300.81 1120 892.3
245.575 192.27 855.649 1205.58 792.27
-287.522 260.035 1143.31 672.478 860.035
-242.469 262.006 1151.98 717.531 862.006
-205.934 276.363 1215.1 754.066 876.363
-150.974 267.265 1175.1 809.026 867.265
-99.7167 259.268 1139.94 860.283 859.268
-53.2056 260.383 1144.84 906.794 860.383
-6.29979 261.817 1151.15 953.7 861.817
41.4799 265.536 1167.5 1001.48 865.536
163.117 185.929 817.486 1123.12 785.929
198.313 187.515 824.46 1158.31 787.515
236.232 190.84 839.079 1196.23 790.84
-293.952 263.321 1144.01 666.048 863.321
-246.226 262.448 1140.22 713.774 862.448
-212.146 279.118 1212.64 747.854 879.118
-158.608 272.556 1184.13 801.392 872.557
-106.502 263.755 1145.89 853.498 863.755
-59.437 263.392 1144.32 900.563 863.392
-12.525 263.533 1144.93 947.475 863.533
155.186 184.057 799.646 1115.19 784.057
191.066 187.087 812.808 1151.07 787.087
226.489 188.835 820.401 1186.49 788.835
269.824 195.875 850.986 1229.82 795.875
-300.806 266.981 1146.3 659.194 866.981
-253.165 266.307 1143.4 706.835 866.307
-216.885 279.992 1202.16 743.115 879.992
-165.207 276.003 1185.04 794.793 876.003
-113.087 267.645 1149.15 846.913 867.645
-65.439 265.49 1139.9 894.561 865.49
19.1215 181.073 777.449 979.121 781.073
52.1996 185.34 795.767 1012.2 785.34
83.2223 181.833 780.711 1043.22 781.833
118.797 187.457 804.857 1078.8 787.457
149.769 184.953 794.107 1109.77 784.953
184.588 187.244 803.944 1144.59 787.244
223.819 192.64 827.109 1183.82 792.64
261.957 195.797 840.668 1221.96 795.797
-306.739 269.821 1145.05 653.26 869.821
-258.278 268.25 1138.39 701.722 868.25
-219.192 277.872 1179.22 740.808 877.872
-172.79 281.039 1192.66 787.21 881.039
-120.022 272.268 1155.44 839.978 872.268
-71.6887 268.673 1140.18 888.311 868.673
14.4894 178.495 757.488 974.489 778.495
46.4838 182.164 773.059 1006.48 782.164
78.7685 183.534 778.874 1038.77 783.534
112.684 186.818 792.812 1072.68 786.818
145.942 187.785 796.912 1105.94 787.785
182.704 192.082 815.148 1142.7 792.082
219.019 194.653 826.058 1179.02 794.653
257.687 198.346 841.733 1217.69 798.346
-313.178 273.107 1145.71 646.822 873.107
-263.844 270.687 1135.56 696.156 870.687
-225.052 280.363 1176.15 734.948 880.363
-179.611 284.776 1194.66 780.39 884.776
-126.342 275.434 1155.47 833.658 875.433
-78.185 272.708 1144.03 881.815 872.708
10.3159 179.999 755.112 970.316 779.999
41.6193 181.493 761.381 1001.62 781.493
74.1096 184.664 774.683 1034.11 784.664
107.692 187.837 787.993 1067.69 787.837
142.031 190.561 799.419 1102.03 790.561
177.797 193.819 813.087 1137.8 793.819
213.383 195.883 821.746 1173.38 795.883
251.822 199.646 837.531 1211.82 799.646
-321.097 277.67 1151.65 638.903 877.67
-270.043 273.782 1135.52 689.957 873.782
-230.695 282.615 1172.16 729.305 882.615
-185.738 287.417 1192.07 774.262 887.417
-133.018 279.345 1158.59 826.982 879.345
-85.2126 278.361 1154.51 874.787 878.361
6.16107 181.277 751.85 966.161 781.277
37.2977 182.794 758.146 997.298 782.794
70.2096 187.678 778.399 1030.21 787.678
104.631 192.282 797.496 1064.63 792.282
137.415 192.402 797.994 1097.41 792.402
173.889 196.648 815.606 1133.89 796.648
208.805 198.048 821.41 1168.81 798.048
246.281 201.149 834.272 1206.28 801.149
-331.785 284.585 1167.1 628.215 884.585
-276.368 277.004 1136 683.632 877.004
-235.443 283.818 1163.95 724.557 883.818
-192.94 291.71 1196.31 767.06 891.71
-139.449 282.71 1159.4 820.551 882.71
-91.3371 280.941 1152.15 868.663 880.941
2.02716 181.218 743.184 962.027 781.218
33.2196 185.238 759.668 993.22 785.238
66.3194 190.856 782.709 1026.32 790.856
100.606 195.113 800.165 1060.61 795.113
134.185 196.239 804.785 1094.18 796.239
171.094 200.832 823.618 1131.09 800.832
204.447 200.423 821.942 1164.45 800.423
242.665 204.224 837.532 1202.66 804.224
-351.61 299.217 1213.5 608.39 899.217
-280.517 278.066 1127.72 679.483 878.066
-238.195 282.713 1146.56 721.805 882.713
-200.08 295.868 1199.92 759.92 895.868
-147.109 288.47 1169.91 812.891 888.47
-97.4969 283.687 1150.51 862.503 883.687
-2.06688 186.055 754.56 957.933 786.055
29.0707 187.34 759.773 989.071 787.34
61.7203 192 778.67 1021.72 792
96.6883 198.235 803.959 1056.69 798.235
131.707 201.377 816.701 1091.71 801.377
165.76 202.069 819.506 1125.76 802.069
200.767 203.494 825.286 1160.77 803.494
237.518 206.021 835.534 1197.52 806.021
-285.552 280.039 1123.27 674.448 880.039
-245.654 287.24 1152.15 714.346 887.24
-210.264 304.395 1220.96 749.736 904.395
-154.696 293.932 1178.99 805.304 893.932
-103.577 286.251 1148.19 856.423 886.251
-6.13296 186.325 747.37 953.867 786.325
24.6885 187.679 752.802 984.688 787.679
56.6764 191.469 768.005 1016.68 791.469
91.3746 198.438 795.957 1051.37 798.438
126.526 202.464 812.106 1086.53 802.464
161.418 204.484 820.208 1121.42 804.484
199.916 209.588 840.681 1159.92 809.588
233.152 208.485 836.256 1193.15 808.485
-290.586 282.036 1119.01 669.414 882.036
-251.454 289.815 1149.87 708.546 889.815
-218.318 309.689 1228.72 741.682 909.689
-161.181 297.227 1179.28 798.819 897.227
-109.994 289.76 1149.65 850.006 889.76
-10.2759 189.422 751.554 949.724 789.422
20.5988 189.975 753.747 980.599 789.975
52.7685 194.641 772.259 1012.77 794.641
86.8254 200.158 794.148 1046.83 800.158
121.901 204.374 810.876 1081.9 804.374
156.861 206.63 819.828 1116.86 806.63
192.065 208.355 826.669 1152.06 808.354
229.064 211.217 838.027 1189.06 811.217
270.202 216.651 859.587 1230.2 816.651
-296.875 285.259 1119.65 663.125 885.259
-254.539 289.319 1135.59 705.461 889.319
-222.429 309.422 1214.49 737.571 909.422
-167.54 300.294 1178.67 792.46 900.294
-117.007 294.736 1156.85 842.993 894.736
-14.5636 193.86 760.91 945.436 793.86
16.655 194.097 761.837 976.655 794.096
48.6243 197.067 773.495 1008.62 797.067
83.0854 203.804 799.939 1043.09 803.804
118.181 207.843 815.793 1078.18 807.843
154.64 211.97 831.99 1114.64 811.97
188.772 211.992 832.075 1148.77 811.992
226.841 215.75 846.829 1186.84 815.75
268.236 221.255 868.436 1228.24 821.255
-301.912 287.288 1115.65 658.088 887.288
-257.335 288.597 1120.73 702.665 888.597
-225.921 308.444 1197.8 734.079 908.444
-173.705 303.03 1176.78 786.295 903.03
-123.815 299.065 1161.38 836.185 899.065
-75.5801 296.647 1151.99 884.42 896.647
12.4973 196.291 762.271 972.497 796.291
44.3296 198.884 772.343 1004.33 798.884
79.0201 206.796 803.068 1039.02 806.796
114.124 210.817 818.681 1074.12 810.817
150.49 214.812 834.197 1110.49 814.812
185.01 215.181 835.627 1145.01 815.181
221.403 217.272 843.75 1181.4 817.272
262.128 222.475 863.953 1222.13 822.475
-309.34 291.591 1120.46 650.66 891.591
-261.668 289.674 1113.1 698.332 889.674
-232.818 312.186 1199.6 727.182 912.186
-183.269 311.568 1197.23 776.731 911.568
-130.501 303.023 1164.39 829.499 903.023
-81.5632 298.644 1147.57 878.437 898.644
8.29212 197.471 758.798 968.292 797.471
40.0818 200.868 771.852 1000.08 800.868
73.497 205.819 790.878 1033.5 805.819
108.928 211.656 813.308 1068.93 811.656
145.464 216.4 831.537 1105.46 816.4
179.633 216.491 831.885 1139.63 816.491
216.792 219.58 843.755 1176.79 819.58
254.812 222.572 855.252 1214.81 822.572
-316.438 295.562 1123.92 643.562 895.562
-265.643 290.41 1104.33 694.357 890.41
-233.799 308.116 1171.65 726.201 908.116
-191.556 317.73 1208.22 768.444 917.73
-136.794 306.044 1163.78 823.206 906.044
-87.9528 302.179 1149.08 872.047 902.179
4.16986 200.796 763.556 964.17 800.796
36.1157 204.412 777.307 996.116 804.412
69.0635 207.65 789.621 1029.06 807.65
105.134 215.215 818.385 1065.13 815.215
141.201 219.112 833.206 1101.2 819.112
176.813 220.924 840.095 1136.81 820.924
211.373 221.044 840.551 1171.37 821.044
247.248 222.312 845.376 1207.25 822.312
-325.527 301.36 1134.18 634.473 901.36
-271.32 293.039 1102.86 688.68 893.039
-236.69 306.763 1154.51 723.31 906.763
-201.768 326.875 1230.2 758.232 926.875
-142.535 307.884 1158.73 817.465 907.884
-94.6124 306.544 1153.69 865.388 906.544
-0.00435851 201.203 757.235 959.996 801.203
31.8731 206.581 777.474 991.873 806.581
64.8633 210.187 791.043 1024.86 810.187
100.638 217.403 818.202 1060.64 817.403
136.313 220.851 831.177 1096.31 820.851
171.766 222.63 837.875 1131.77 822.63
208.864 225.594 849.028 1168.86 825.594
242.529 224.532 845.034 1202.53 824.532
-333.659 306.233 1140.78 626.341 906.233
-276.431 295.074 1099.21 683.569 895.074
-235.535 300.397 1119.04 724.465 900.397
-209.556 331.921 1236.47 750.444 931.921
-149.303 311.956 1162.1 810.697 911.956
-100.954 309.803 1154.08 859.046 909.803
-4.13581 202.869 755.728 955.864 802.869
27.4139 207.128 771.596 987.414 807.128
60.9067 213.639 795.851 1020.91 813.639
96.8802 221.274 824.29 1056.88 821.274
133.158 225.474 839.935 1093.16 825.474
168.349 226.486 843.707 1128.35 826.486
204.657 228.4 850.835 1164.66 828.4
240.972 229.763 855.914 1200.97 829.763
-344.226 313.293 1155.32 615.774 913.293
-282.633 298.282 1099.96 677.367 898.282
-238.229 299.156 1103.18 721.771 899.156
-158.352 320.589 1182.22 801.648 920.589
-107.104 312.495 1152.37 852.896 912.495
-8.30944 205.98 759.583 951.691 805.98
23.1134 208.495 768.859 983.113 808.495
56.3163 214.9 792.479 1016.32 814.9
92.2983 223.344 823.615 1052.3 823.344
130.204 230.671 850.637 1090.2 830.672
165.004 230.564 850.239 1125 830.564
200.41 231.193 852.559 1160.41 831.193
235.86 231.677 854.346 1195.86 831.677
-367.86 332.085 1212.39 592.14 932.085
-288.486 301.121 1099.35 671.514 901.121
-241.994 299.368 1092.95 718.006 899.368
-164.27 322.751 1178.32 795.73 922.751
-112.508 313.15 1143.27 847.492 913.15
-12.5002 208.695 761.915 947.5 808.695
19.0076 211.682 772.819 979.008 811.682
51.9284 216.835 791.632 1011.93 816.835
86.9449 223.409 815.633 1046.94 823.409
124.92 231.821 846.345 1084.92 831.821
159.921 232.256 847.934 1119.92 832.256
194.004 231.441 844.958 1154 831.441
229.11 231.907 846.66 1189.11 831.907
-295.61 305.277 1103.51 664.39 905.277
-246.615 300.704 1086.98 713.385 900.704
-220.266 327.819 1184.99 739.734 927.819
-170.979 326.481 1180.16 789.021 926.481
-118.9 316.654 1144.63 841.1 916.654
-16.5196 208.933 755.245 943.48 808.932
14.8173 214.295 774.63 974.817 814.295
48.0372 221.007 798.892 1008.04 821.007
82.9659 226.951 820.379 1042.97 826.951
119.714 233.007 842.269 1079.71 833.007
155.444 234.814 848.8 1115.44 834.814
191.763 236.686 855.569 1151.76 836.686
227.806 237.691 859.201 1187.81 837.691
-302.353 309.019 1106.11 657.647 909.019
-251.149 301.982 1080.92 708.851 901.982
-214.681 313.445 1121.95 745.319 913.445
-177.403 329.656 1179.98 782.597 929.656
-125.635 321.001 1149 834.365 921.001
-20.7583 212.119 759.264 939.242 812.12
10.483 214.376 767.341 970.483 814.376
43.3128 221.367 792.363 1003.31 821.367
78.4371 229.066 819.92 1038.44 829.065
115.388 235.878 844.305 1075.39 835.878
151.593 238.375 853.242 1111.59 838.375
188.712 241.102 863.004 1148.71 841.102
221.651 238.471 853.588 1181.65 838.471
261.955 243.401 871.232 1221.95 843.401
-309.119 312.77 1108.69 650.881 912.77
-256.864 304.707 1080.1 703.136 904.707
-215.329 308.649 1094.08 744.671 908.649
-184.887 334.752 1186.61 775.113 934.752
-132.771 326.243 1156.44 827.229 926.243
-83.5946 319.513 1132.59 876.405 919.513
6.29112 216.581 767.721 966.291 816.581
38.8149 222.579 788.984 998.815 822.579
74.2091 232.102 822.74 1034.21 832.102
111.595 239.956 850.58 1071.6 839.956
147.294 241.306 855.365 1107.29 841.306
186.27 246.472 873.678 1146.27 846.472
217.962 241.889 857.432 1177.96 841.889
257.963 246.519 873.843 1217.96 846.519
-315.437 316.058 1109.59 644.563 916.058
-262.892 307.803 1080.61 697.108 907.803
-218.719 307.991 1081.27 741.281 907.991
-192.169 339.401 1191.54 767.831 939.401
-139.721 330.891 1161.67 820.279 930.891
-89.6545 322.136 1130.93 870.345 922.136
2.09607 218.886 768.446 962.096 818.886
34.6149 225.474 791.576 994.615 825.474
68.7906 231.256 811.874 1028.79 831.256
104.828 237.485 833.744 1064.83 837.485
143.536 245.211 860.868 1103.54 845.211
181.873 249.381 875.506 1141.87 849.381
213.822 244.86 859.633 1173.82 844.86
249.169 244.959 859.981 1209.17 844.959
-326.188 323.741 1125.76 633.812 923.741
-269.301 311.337 1082.63 690.699 911.337
-223.085 308.808 1073.83 736.915 908.808
-198.513 342.363 1190.52 761.487 942.363
-146.837 335.817 1167.75 813.163 935.817
-96.4623 327.348 1138.3 863.538 927.348
-2.11578 222.126 772.411 957.884 822.126
30.0102 225.554 784.329 990.01 825.554
64.8199 235.172 817.775 1024.82 835.172
100.715 240.829 837.444 1060.72 840.828
140.451 250.456 870.924 1100.45 850.456
175.643 249.722 868.369 1135.64 849.722
212.629 251.354 874.045 1172.63 851.354
244.998 247.846 861.846 1205 847.846
-333.264 327.724 1128.88 626.736 927.724
-276.195 315.41 1086.46 683.805 915.41
-227.562 309.846 1067.3 732.438 909.846
-188.305 317.438 1093.45 771.695 917.438
-153.502 339.63 1169.89 806.498 939.63
-103.496 333.07 1147.29 856.504 933.07
-6.3196 223.571 770.115 953.68 823.571
25.4584 225.361 776.279 985.458 825.361
60.1176 236.496 814.635 1020.12 836.496
96.4642 243.944 840.292 1056.46 843.944
134.941 251.442 866.118 1094.94 851.442
169.417 249.913 860.853 1129.42 849.913
206.668 252.299 869.071 1166.67 852.299
241.862 251.843 867.498 1201.86 851.843
-342.436 333.734 1138.86 617.564 933.734
-283.13 319.503 1090.3 676.87 919.503
-233.229 312.538 1066.53 726.771 912.538
-190.632 314.406 1072.9 769.368 914.406
-159.842 342.708 1169.48 800.158 942.708
-110.584 338.703 1155.82 849.416 938.703
-10.583 226.818 774.01 949.417 826.818
21.3199 228.612 780.133 981.32 828.612
55.8934 239.706 817.991 1015.89 839.706
91.7679 245.966 839.354 1051.77 845.966
129.629 252.685 862.28 1089.63 852.685
168.08 257.427 878.462 1128.08 857.427
206.037 259.872 886.808 1166.04 859.872
238.995 256.225 874.36 1199 856.225
-373.202 360.556 1219.02 586.798 960.556
-288.773 322.129 1089.1 671.227 922.129
-238.425 314.617 1063.7 721.575 914.617
-194.66 314.372 1062.87 765.34 914.372
-165.591 344.564 1164.95 794.409 944.564
-116.57 340.89 1152.53 843.43 940.89
-14.7151 227.399 768.823 945.285 827.399
17.1211 231.638 783.154 977.121 831.638
50.0682 235.575 796.463 1010.07 835.575
88.5878 252.272 852.916 1048.59 852.272
124.206 253.594 857.384 1084.21 853.594
162.258 258.205 872.975 1122.26 858.205
200.224 261.037 882.552 1160.22 861.037
236.809 261.479 884.043 1196.81 861.479
-295.83 326.323 1093.18 664.17 926.323
-243.972 317.175 1062.53 716.028 917.175
-199.467 315.689 1057.55 760.533 915.689
-166.147 335.994 1125.57 793.853 935.994
-123.214 345.001 1155.75 836.786 945.001
-19.085 231.525 775.604 940.915 831.525
12.9073 235.009 787.276 972.907 835.009
45.9816 239.143 801.124 1005.98 839.143
82.4499 250.128 837.925 1042.45 850.128
120.786 258.651 866.477 1080.79 858.651
157.59 260.765 873.557 1117.59 860.765
195.494 263.578 882.981 1155.49 863.578
229.676 261.279 875.279 1189.68 861.279
-302.447 330.01 1095.5 657.553 930.01
-249.859 320.18 1062.86 710.141 920.18
-203.486 315.843 1048.47 756.514 915.843
-162.73 320.238 1063.06 797.27 920.238
-129.358 347.693 1154.2 830.642 947.693
-23.5287 235.684 782.373 936.471 835.684
8.54439 235.537 781.883 968.544 835.536
41.8384 242.705 805.678 1001.84 842.705
77.4528 251.069 833.445 1037.45 851.069
115.215 259.143 860.246 1075.21 859.143
151.583 261.032 866.517 1111.58 861.032
190.415 265.64 881.813 1150.41 865.64
224.375 263.066 873.269 1184.38 863.066
-312.589 337.488 1110.25 647.411 937.488
-257.315 325.165 1069.7 702.685 925.165
-209.307 318.846 1048.92 750.693 918.846
-165.705 317.704 1045.16 794.295 917.704
-135.839 351.29 1155.65 824.161 951.29
4.23184 235.553 774.905 964.232 835.553
37.308 244.083 802.968 997.308 844.083
73.5784 255.717 841.242 1033.58 855.717
111.447 263.708 867.528 1071.45 863.708
148.593 266.534 876.824 1108.59 866.534
189.114 273.135 898.54 1149.11 873.135
223.579 270.262 889.088 1183.58 870.262
-321.18 343.218 1119.03 638.82 943.218
-263.635 328.678 1071.63 696.365 928.678
-214.317 320.628 1045.38 745.683 920.628
-168.943 315.931 1030.07 791.057 915.931
-141.045 351.678 1146.62 818.955 951.678
-93.4873 349.639 1139.97 866.513 949.639
-0.00445359 237.318 773.754 959.996 837.318
32.8833 246.017 802.116 992.883 846.017
68.8937 257.696 840.196 1028.89 857.696
106.46 265.468 865.534 1066.46 865.468
143.571 268.504 875.433 1103.57 868.504
182.693 273.333 891.18 1142.69 873.333
217.361 271 883.571 1177.36 871
252 269.301 878.034 1212 869.301
-331.445 350.665 1133.21 628.555 950.665
-270.723 333.119 1076.51 689.277 933.119
-220.688 324.451 1048.5 739.312 924.451
-173.998 317.694 1026.66 786.002 917.694
-142.297 342.728 1107.56 817.703 942.728
-100.113 354.146 1144.46 859.887 954.146
-4.2659 241.211 779.499 955.734 841.211
28.3293 246.737 797.36 988.329 846.737
63.9271 258.483 835.318 1023.93 858.483
100.895 265.642 858.451 1060.9 865.642
139.989 273.247 883.029 1099.99 873.247
178.164 276.301 892.896 1138.16 876.301
212.081 272.836 881.701 1172.08 872.836
250.712 275.562 890.511 1210.71 875.562
-277.775 337.48 1081.05 682.225 937.479
-226.255 327.079 1047.74 733.745 927.078
-178.253 318.078 1018.9 781.747 918.078
-140.49 327.433 1048.87 819.51 927.433
-106.179 356.637 1142.42 853.821 956.637
-8.56933 244.54 783.34 951.431 844.54
24.154 250.826 803.474 984.154 850.826
59.0013 259.188 830.262 1019 859.188
96.4351 268.637 860.528 1056.44 868.637
134.814 274.951 880.755 1094.81 874.951
171.362 275.652 883.001 1131.36 875.652
209.903 278.755 892.941 1169.9 878.755
244.548 276.531 885.815 1204.55 876.531
-285.979 343.188 1089.8 674.021 943.188
-232.607 330.83 1050.55 727.393 930.83
-183.611 320.494 1017.73 776.389 920.494
-144.235 325.807 1034.6 815.765 925.807
-110.849 354.718 1126.41 849.151 954.718
-12.8808 247.238 785.108 947.119 847.238
19.8267 253.856 806.123 979.827 853.856
55.2378 265.18 842.083 1015.24 865.18
91.3781 269.947 857.221 1051.38 869.947
130.189 277.763 882.039 1090.19 877.763
167.801 280.179 889.712 1127.8 880.179
205.308 281.589 894.19 1165.31 881.589
241.858 281.457 893.77 1201.86 881.457
-291.984 346.222 1089.97 668.016 946.222
-238.04 333.267 1049.19 721.96 933.267
-189.723 324.211 1020.68 770.277 924.211
-148.65 325.913 1026.04 811.35 925.913
-112.594 344.3 1083.92 847.406 944.3
-17.1752 249.419 785.216 942.825 849.419
15.3014 254.094 799.935 975.301 854.094
51.0087 269.46 848.31 1011.01 869.46
85.6454 269.004 846.874 1045.65 869.004
125.721 280.967 884.536 1085.72 880.967
162.249 281.418 885.957 1122.25 881.418
202.755 287.343 904.609 1162.76 887.343
236.881 283.792 893.429 1196.88 883.792
-300.113 351.746 1097.91 659.886 951.746
-244.463 337.083 1052.15 715.537 937.083
-196.891 329.66 1028.98 763.109 929.66
-153.708 327.543 1022.37 806.292 927.543
-113.416 332.312 1037.25 846.584 932.312
-21.682 254.074 793.048 938.318 854.074
10.9887 257.699 804.363 970.989 857.699
46.1658 270.576 844.555 1006.17 870.576
80.5769 269.849 842.288 1040.58 869.849
118.72 278.308 868.688 1078.72 878.307
151.347 272.915 851.856 1111.35 872.915
197.471 289.319 903.059 1157.47 889.319
231.704 285.873 892.302 1191.7 885.873
414.274 388.452 1212.49 1374.27 988.452
-308.367 357.356 1105.99 651.633 957.356
-251.647 341.904 1058.17 708.353 941.904
-202.945 333.177 1031.16 757.055 933.177
-157.474 326.559 1010.67 802.526 926.559
-116.97 329.189 1018.81 843.03 929.189
-26.015 256.218 792.974 933.985 856.218
6.48883 255.854 791.848 966.489 855.854
40.6105 266.723 825.485 1000.61 866.723
76.2323 273.083 845.171 1036.23 873.083
105.293 259.309 802.541 1065.29 859.309
146.584 275.044 851.24 1106.58 875.044
191.915 290.85 900.158 1151.92 890.85
227.677 289.393 895.647 1187.68 889.393
-318.904 365.527 1121.79 641.096 965.527
-259.251 347.233 1065.64 700.749 947.233
-209.138 336.892 1033.91 750.862 936.892
-162.601 328.516 1008.2 797.399 928.516
-121.379 328.828 1009.16 838.621 928.828
-30.6718 261.124 801.38 929.328 861.124
2.14796 256.591 787.468 962.148 856.591
36.0473 268.603 824.332 996.047 868.603
71.8399 276.271 847.863 1031.84 876.271
100.117 259.462 796.276 1060.12 859.462
147.448 288.155 884.335 1107.45 888.155
188.656 295.918 908.159 1148.66 895.918
222.415 291.363 894.181 1182.42 891.363
-266.025 351.399 1069.46 693.975 951.399
-214.965 339.993 1034.74 745.035 939.993
-167.546 330.155 1004.8 792.454 930.155
-125.788 328.693 1000.35 834.212 928.693
-2.15985 259.084 788.502 957.84 859.083
31.2209 268.11 815.972 991.221 868.11
67.2513 278.781 848.449 1027.25 878.781
95.5652 261.094 794.62 1055.57 861.094
131.437 267.799 815.027 1091.44 867.799
182.594 296.617 902.733 1142.59 896.617
220.214 297.437 905.227 1180.21 897.437
-274.002 357.098 1077.83 685.998 957.098
