ply
format ascii 1.0
element vertex 1580
property float x
property float y
property float z
property float u
property float v
end_header
-616.772 -478.157 871.191 0 0
-585.017 -501.993 914.619 0 0
-605.466 -491.736 900.415 0 0
-614.199 -473.247 870.919 0 0
-577.863 -493.022 907.312 0 0
-616.167 -497.439 920.069 0 0
-549.092 -493.662 913.082 0 0
-618.692 -473.749 880.704 0 0
-578.869 -491.019 912.809 0 0
-612.443 -491.439 918.256 0 0
-613.293 -466.657 876.428 0 0
-573.754 -483.82 908.66 0 0
-623.497 -497.236 938.677 0 0
-612.641 -463.184 878.929 0 0
-15.9676 -615.431 1167.83 0 0
-634.127 -502.563 958.625 0 0
-626.695 -470.741 902.632 0 0
-12.3099 -586.854 1125.27 0 0
-635.893 -500.776 965.283 0 0
-621.907 -464.074 899.276 0 0
-572.498 -474.047 918.6 0 0
-9.73322 -612.092 1186.1 0 0
-643.903 -503.832 981.516 0 0
-48.3671 -605.45 1179.48 0 0
-641.972 -475.853 931.973 0 0
-574.159 -472.458 925.325 0 0
-6.31123 -588.827 1153.24 0 0
-669.769 -520.659 1025.22 0 0
-44.7547 -593.848 1169.33 0 0
-572.739 -468.306 927.12 0 0
-3.08936 -569.693 1127.84 0 0
-42.0531 -594.448 1183.25 0 0
-572.784 -465.334 931.314 0 0
-0.00651061 -565.175 1131.14 0 0
-537.13 -460.593 926.896 0 0
-38.0002 -575.58 1158.3 0 0
-572.386 -461.976 934.822 0 0
3.08306 -558.573 1130.29 0 0
-537.253 -457.789 931.501 0 0
-34.5468 -564.553 1148.74 0 0
-573.837 -460.077 941.393 0 0
-74.7914 -581.347 1189.53 0 0
6.16407 -551.627 1128.72 0 0
-536.931 -454.579 935.376 0 0
-31.1552 -553.801 1139.54 0 0
-579.841 -461.761 955.528 0 0
-69.619 -559.409 1157.59 0 0
9.19448 -542.221 1122.03 0 0
-640.25 -434.559 904.354 0 0
-536.062 -450.885 938.331 0 0
-27.9665 -546.13 1136.54 0 0
-581.26 -459.725 962.2 0 0
-505.683 -450.965 943.865 0 0
-66.9546 -557.24 1166.3 0 0
12.2084 -533.768 1117.17 0 0
-657.167 -442.675 931.846 0 0
-531.706 -444.259 935.181 0 0
-24.6768 -535.941 1128.17 0 0
-583.092 -457.97 969.621 0 0
-502.795 -445.531 943.285 0 0
-63.2786 -546.648 1157.37 0 0
-536.986 -445.65 949.03 0 0
-21.6403 -530.934 1130.65 0 0
-499.398 -439.654 941.743 0 0
-61.7955 -555.425 1189.73 0 0
-537.033 -442.639 953.721 0 0
-18.5484 -524.716 1130.56 0 0
-500.005 -437.288 947.773 0 0
-57.8529 -542.446 1175.69 0 0
-536.185 -438.865 956.859 0 0
-95.924 -536.475 1169.68 0 0
-15.4039 -516.716 1126.6 0 0
-500.306 -434.618 953.282 0 0
-53.4415 -524.269 1149.92 0 0
-535.408 -435.128 960.156 0 0
-93.8867 -536.712 1184.31 0 0
-12.2991 -509.509 1124.29 0 0
-495.684 -427.667 949.421 0 0
-49.3977 -508.709 1129.33 0 0
-534.599 -431.344 963.428 0 0
-468.137 -430.768 962.143 0 0
-89.1664 -521.563 1164.94 0 0
-9.18478 -501.116 1119.27 0 0
-495.024 -424.135 953.146 0 0
-46.2718 -502.112 1128.38 0 0
-539.294 -431.947 976.701 0 0
-464.775 -424.839 960.63 0 0
-85.8218 -514.233 1162.76 0 0
-6.13392 -495.691 1120.84 0 0
-493.968 -420.243 956.146 0 0
-43.2737 -496.934 1130.64 0 0
-546.582 -434.523 994.824 0 0
-462.615 -420.01 961.598 0 0
-80.8819 -497.051 1137.98 0 0
-3.06101 -488.101 1117.49 0 0
-493.997 -417.247 961.287 0 0
-39.8273 -486.406 1120.62 0 0
-561.313 -442.852 1026.74 0 0
-459.994 -414.761 961.615 0 0
-78.1534 -493.242 1143.57 0 0
-0.00641595 -480.784 1114.69 0 0
-492.766 -413.163 964.02 0 0
-117.125 -496.306 1158.01 0 0
-36.9511 -482.722 1126.32 0 0
-561.056 -439.235 1031.43 0 0
-458.212 -410.262 963.395 0 0
-75.3228 -488.906 1148.07 0 0
3.04112 -474.785 1114.91 0 0
-492.025 -409.469 967.745 0 0
-111.656 -480.071 1134.61 0 0
-33.8649 -476.459 1126.07 0 0
-457.939 -407.093 968.385 0 0
-72.1126 -482.149 1146.93 0 0
6.08885 -468.706 1114.95 0 0
-492.238 -406.539 973.398 0 0
-428.881 -409.558 980.626 0 0
-111.112 -485.032 1161.34 0 0
-30.7813 -470.218 1125.87 0 0
-457.078 -403.374 972.183 0 0
-68.9486 -475.679 1146.44 0 0
-496.425 -406.83 987.013 0 0
-426.484 -404.466 981.277 0 0
-105.148 -466.312 1131.32 0 0
-27.6647 -463.408 1124.28 0 0
-456.344 -399.745 976.298 0 0
-64.9833 -463.48 1131.96 0 0
-496.186 -403.433 991.929 0 0
-425.136 -400.357 984.366 0 0
-103.831 -468.132 1151.01 0 0
-24.5978 -457.378 1124.56 0 0
-455.912 -396.352 981.111 0 0
-396.765 -404.402 1001.04 0 0
-62.1098 -458.922 1135.99 0 0
-501.434 -404.43 1007.93 0 0
-422.446 -394.977 984.368 0 0
-100.344 -460.276 1147.11 0 0
-21.5357 -451.477 1125.18 0 0
-455.999 -393.377 987.105 0 0
-393.921 -398.821 1000.77 0 0
-336.085 -411.748 1033.2 0 0
-141.698 -469.492 1178.1 0 0
-58.8724 -451.697 1133.45 0 0
-527.313 -421.826 1065.8 0 0
-422.028 -391.705 989.698 0 0
-96.204 -449.314 1135.26 0 0
-18.4582 -445.282 1125.07 0 0
-454.539 -389.041 989.802 0 0
-393.002 -395.176 1005.41 0 0
-55.3794 -442.347 1125.43 0 0
-420.134 -387.042 991.613 0 0
-93.388 -444.474 1138.76 0 0
-15.4042 -439.738 1126.62 0 0
-457.458 -388.405 1002.12 0 0
-391.04 -390.465 1007.44 0 0
-137.293 -463.483 1195.83 0 0
-51.877 -432.641 1116.26 0 0
-418.861 -382.935 995.029 0 0
-361.351 -394.38 1024.77 0 0
-299.186 -405.024 1052.42 0 0
-89.9994 -436.91 1135.28 0 0
-12.3439 -434.255 1128.38 0 0
-458.208 -385.864 1009.81 0 0
-388.507 -385.176 1008.01 0 0
-135.002 -460.276 1204.55 0 0
-49.2201 -429.983 1125.27 0 0
-417.266 -378.516 997.717 0 0
-359.016 -389.283 1026.1 0 0
-297.677 -401.114 1057.28 0 0
-87.3045 -432.727 1140.61 0 0
-9.26743 -428.451 1129.34 0 0
-459.528 -383.752 1018.86 0 0
-386.75 -380.648 1010.62 0 0
-131.264 -452.157 1200.47 0 0
-46.3921 -426.108 1131.32 0 0
-417.568 -375.787 1005.01 0 0
-356.824 -384.333 1027.86 0 0
-295.33 -396.062 1059.23 0 0
-84.9591 -430.405 1151.08 0 0
-6.21343 -424.531 1135.37 0 0
-385.541 -376.64 1014.71 0 0
-325.477 -387.691 1044.48 0 0
-261.614 -399.152 1075.36 0 0
-126.447 -440.248 1186.07 0 0
-43.6614 -423.43 1140.76 0 0
-417.241 -372.453 1010.87 0 0
-354.97 -379.736 1030.64 0 0
-292.506 -390.367 1059.49 0 0
-167.526 -442.753 1201.67 0 0
-79.9653 -414.535 1125.08 0 0
-384.212 -372.494 1018.54 0 0
-323.303 -382.788 1046.68 0 0
-260.552 -396.128 1083.16 0 0
-120.657 -424.796 1161.55 0 0
-40.8503 -420.354 1149.41 0 0
-418.748 -370.707 1021.29 0 0
-353.327 -375.349 1034.07 0 0
-290.465 -385.71 1062.62 0 0
-164.817 -437.713 1205.88 0 0
-77.5126 -411.691 1134.19 0 0
-382.371 -367.833 1021.05 0 0
-321.398 -378.19 1049.81 0 0
-257.358 -389.853 1082.18 0 0
-115.041 -409.749 1137.41 0 0
-37.645 -413.373 1147.47 0 0
-420.796 -369.372 1033.17 0 0
-351.064 -370.29 1035.74 0 0
-288.336 -380.925 1065.48 0 0
-224.626 -397.009 1110.47 0 0
-162.109 -432.69 1210.27 0 0
-73.8148 -402.235 1125.09 0 0
-381.781 -364.352 1026.98 0 0
-320.214 -374.421 1055.36 0 0
-254.814 -384.562 1083.94 0 0
-111.549 -402.152 1133.52 0 0
-34.6015 -408.198 1150.56 0 0
-423.432 -368.476 1046.67 0 0
-350.471 -366.972 1042.39 0 0
-286.236 -376.168 1068.52 0 0
-222.11 -391.855 1113.07 0 0
-158.077 -424.133 1204.76 0 0
-70.3061 -393.657 1118.19 0 0
-380.493 -360.175 1031.09 0 0
-318.617 -370.149 1059.64 0 0
-252.406 -379.47 1086.33 0 0
-186.592 -397.405 1137.67 0 0
-107.976 -394.221 1128.56 0 0
-31.3677 -400.774 1147.32 0 0
-425.403 -366.921 1058.69 0 0
-348.618 -362.309 1045.38 0 0
-284.332 -371.655 1072.35 0 0
-218.862 -385.409 1112.03 0 0
-153.005 -412.748 1190.92 0 0
-66.6664 -384.183 1108.5 0 0
-379.253 -356.02 1035.4 0 0
-316.44 -365.185 1062.06 0 0
-249.645 -373.843 1087.24 0 0
-183.048 -390.26 1134.98 0 0
-104.307 -385.891 1122.28 0 0
-28.2627 -394.937 1148.58 0 0
-429.248 -366.893 1075.57 0 0
-346.71 -357.573 1048.25 0 0
-282.251 -366.899 1075.59 0 0
-215.864 -379.402 1112.24 0 0
-146.224 -396.672 1162.87 0 0
-63.7202 -378.622 1109.96 0 0
-377.855 -351.693 1039.34 0 0
-314.732 -360.749 1066.11 0 0
-247.379 -368.952 1090.35 0 0
-178.818 -381.649 1127.87 0 0
-101.766 -381.732 1128.11 0 0
-434.228 -367.72 1095.56 0 0
-345.095 -353.121 1052.06 0 0
-279.925 -361.812 1077.96 0 0
-212.931 -373.509 1112.8 0 0
-140.893 -384.441 1145.37 0 0
-60.9185 -373.98 1114.21 0 0
-377.53 -348.332 1046.31 0 0
-312.948 -356.207 1069.97 0 0
-245.51 -364.642 1095.31 0 0
-174.957 -373.82 1122.87 0 0
-98.5484 -375.054 1126.58 0 0
-343.733 -348.907 1056.72 0 0
-278.138 -357.409 1082.47 0 0
-210.34 -368.215 1115.19 0 0
-135.282 -371.372 1124.76 0 0
-58.2458 -370.259 1121.39 0 0
-376.506 -344.291 1051.44 0 0
-311.547 -352.08 1075.23 0 0
-243.954 -360.781 1101.8 0 0
-171.485 -366.822 1120.25 0 0
-95.933 -370.688 1132.06 0 0
-341.86 -344.152 1059.86 0 0
-276.391 -353.039 1087.23 0 0
-207.579 -362.62 1116.74 0 0
-130.775 -361.267 1112.57 0 0
-55.4167 -365.687 1126.18 0 0
-374.43 -339.266 1053.69 0 0
-309.484 -347.185 1078.28 0 0
-241.375 -355.395 1103.78 0 0
-168.279 -360.389 1119.29 0 0
-92.345 -362.562 1126.04 0 0
-340.434 -339.826 1064.46 0 0
-274.149 -348.022 1090.14 0 0
-204.877 -357.126 1118.65 0 0
-126.641 -352.144 1103.05 0 0
-52.708 -362.069 1134.14 0 0
-373.047 -334.849 1057.93 0 0
-306.861 -341.651 1079.42 0 0
-239.128 -350.49 1107.35 0 0
-165.617 -355.121 1121.98 0 0
-88.9836 -355.274 1122.46 0 0
-338.206 -334.681 1066.61 0 0
-272.1 -343.237 1093.88 0 0
-201.61 -350.647 1117.5 0 0
-124.328 -348.08 1109.32 0 0
-49.7859 -357.146 1138.21 0 0
-371.646 -330.391 1062.19 0 0
-304.924 -336.87 1083.02 0 0
-236.953 -345.678 1111.34 0 0
-162.536 -348.957 1121.88 0 0
-85.6378 -348.009 1118.84 0 0
-336.96 -330.487 1071.92 0 0
-270.003 -338.375 1097.51 0 0
-199.177 -345.616 1120.99 0 0
-120.555 -339.927 1102.54 0 0
-371.917 -327.379 1071.34 0 0
-303.338 -332.455 1087.95 0 0
-234.606 -340.605 1114.62 0 0
-158.437 -340.604 1114.62 0 0
-81.8229 -338.76 1108.58 0 0
-335.206 -325.771 1075.7 0 0
-267.839 -333.416 1100.94 0 0
-196.634 -340.391 1123.97 0 0
-117.08 -332.59 1098.22 0 0
-374.248 -326.105 1086.61 0 0
-301.091 -327.298 1090.59 0 0
-231.717 -334.74 1115.38 0 0
-154.486 -332.566 1108.14 0 0
-77.8086 -328.545 1094.74 0 0
-333.015 -320.611 1078.12 0 0
-265.653 -328.416 1104.37 0 0
-194.078 -335.138 1126.97 0 0
-113.471 -324.847 1092.37 0 0
-375.771 -324.039 1099.76 0 0
-298.944 -322.234 1093.63 0 0
-229.34 -329.607 1118.66 0 0
-151.361 -326.301 1107.44 0 0
-75.1438 -323.972 1099.53 0 0
-331.828 -316.395 1083.87 0 0
-263.244 -323.126 1106.93 0 0
-190.939 -328.875 1126.62 0 0
-108.876 -314.23 1076.46 0 0
-296.676 -317.026 1096.3 0 0
-227.113 -324.68 1122.77 0 0
-147.794 -319.081 1103.4 0 0
-71.9912 -317.313 1097.29 0 0
-330.524 -312.036 1089.34 0 0
-261.451 -318.577 1112.17 0 0
-187.445 -322.004 1124.14 0 0
-105.724 -307.737 1074.33 0 0
-294.902 -312.328 1100.87 0 0
-224.253 -318.84 1123.82 0 0
-144.636 -312.741 1102.32 0 0
-68.5344 -309.25 1090.02 0 0
-329.013 -307.451 1094.22 0 0
-258.673 -312.814 1113.3 0 0
-184.62 -316.284 1125.65 0 0
-102.245 -300.27 1068.66 0 0
-30.815 -316.691 1127.1 0 0
-293.082 -307.557 1105.35 0 0
-222.093 -313.984 1128.45 0 0
-141.512 -306.475 1101.46 0 0
-65.3031 -302.126 1085.83 0 0
-329.874 -305.031 1107.15 0 0
-256.966 -308.33 1119.12 0 0
-181.461 -309.989 1125.14 0 0
-98.7972 -292.867 1062.99 0 0
-27.5597 -308.575 1120.01 0 0
-291.069 -302.563 1109.19 0 0
-219.356 -308.305 1130.24 0 0
-138.165 -299.725 1098.79 0 0
-61.9139 -294.189 1078.49 0 0
-333.043 -304.645 1128.13 0 0
-254.752 -303.219 1122.85 0 0
-178.544 -304.108 1126.14 0 0
-95.4852 -285.839 1058.49 0 0
-24.3618 -300.768 1113.77 0 0
-289.202 -297.698 1113.68 0 0
-216.815 -302.892 1133.11 0 0
-134.657 -292.62 1094.68 0 0
-58.5003 -286.017 1069.98 0 0
-252.551 -298.105 1126.72 0 0
-175.681 -298.317 1127.52 0 0
-92.137 -278.677 1053.29 0 0
-21.2315 -293.493 1109.29 0 0
-287.888 -293.374 1120.41 0 0
-213.929 -296.99 1134.22 0 0
-131.011 -285.214 1089.25 0 0
-54.9922 -277.226 1058.74 0 0
-250.335 -292.957 1130.62 0 0
-172.914 -292.687 1129.58 0 0
-88.7106 -271.245 1046.83 0 0
-18.0169 -284.547 1098.17 0 0
-287.91 -290.359 1132.54 0 0
-211.309 -291.452 1136.81 0 0
-126.404 -275.704 1075.38 0 0
-51.5905 -268.793 1048.43 0 0
-248.241 -287.93 1135.18 0 0
-170.536 -287.708 1134.3 0 0
-85.2872 -263.784 1039.98 0 0
-14.9302 -276.968 1091.96 0 0
-289.948 -289.29 1152.96 0 0
-208.519 -285.672 1138.54 0 0
-121.72 -266.013 1060.19 0 0
-48.4352 -261.499 1042.2 0 0
24.4569 -280.696 1118.71 0 0
-246.532 -283.327 1141.63 0 0
-167.358 -281.377 1133.78 0 0
-81.9986 -256.703 1034.35 0 0
-11.8613 -269.089 1084.26 0 0
-205.334 -279.348 1138.14 0 0
-117.323 -256.934 1046.81 0 0
-45.3119 -254.26 1035.92 0 0
27.3813 -273.248 1113.28 0 0
-244.861 -278.736 1148.43 0 0
-162.048 -271.474 1118.51 0 0
-78.2375 -248.087 1022.15 0 0
-8.74174 -258.554 1065.28 0 0
-202.692 -273.76 1140.78 0 0
-113.632 -249.39 1039.23 0 0
-42.263 -247.325 1030.62 0 0
30.2772 -265.869 1107.9 0 0
-243.678 -274.663 1157.73 0 0
-156.116 -260.562 1098.29 0 0
-74.4538 -239.318 1008.74 0 0
-5.79883 -251.385 1059.61 0 0
-200.22 -268.389 1144.47 0 0
-109.881 -241.705 1030.68 0 0
-39.3014 -240.806 1026.85 0 0
33.0227 -257.606 1098.49 0 0
-241.494 -269.428 1162.45 0 0
-147.539 -245.289 1058.3 0 0
-70.9342 -231.317 998.02 0 0
-2.8928 -244.774 1056.08 0 0
-195.946 -260.609 1137.82 0 0
-105.388 -232.376 1014.55 0 0
-35.9984 -231.995 1012.89 0 0
35.5106 -248.006 1082.79 0 0
-242.692 -267.903 1183.79 0 0
-143.968 -238.382 1053.34 0 0
-67.8908 -224.817 993.405 0 0
-0.00602689 -236.968 1047.09 0 0
-193.212 -254.886 1140.04 0 0
-101.522 -224.414 1003.75 0 0
-33.4186 -227.745 1018.65 0 0
-140.154 -231.081 1046.36 0 0
-65.0396 -218.929 991.335 0 0
2.8432 -230.196 1042.35 0 0
-189.628 -248.041 1137.23 0 0
-98.9046 -219.207 1005.03 0 0
-30.3969 -220.455 1010.75 0 0
-135.941 -223.141 1036.05 0 0
-61.9945 -212.361 986.001 0 0
5.67968 -223.996 1040.02 0 0
-186.774 -242.154 1138.78 0 0
-95.099 -211.36 993.971 0 0
-27.6737 -215.237 1012.2 0 0
-131.382 -214.655 1022.61 0 0
-59.334 -207.091 986.578 0 0
8.52185 -218.293 1039.94 0 0
-182.075 -233.891 1128.95 0 0
-91.4012 -203.74 983.418 0 0
-24.6942 -207.913 1003.56 0 0
-127.34 -207.038 1012.7 0 0
-56.647 -201.733 986.747 0 0
11.3405 -212.16 1037.75 0 0
-170.86 -217.377 1077.68 0 0
-88.5949 -198.1 982.107 0 0
-22.015 -203.016 1006.48 0 0
-123.84 -200.318 1006.75 0 0
-54.2082 -197.279 991.474 0 0
14.1475 -206.054 1035.58 0 0
-165.241 -208.118 1060.52 0 0
-86.0082 -192.95 983.225 0 0
-19.2258 -197.124 1004.49 0 0
-120.779 -194.316 1004.18 0 0
-51.5645 -192.106 992.752 0 0
16.9216 -199.725 1032.13 0 0
-161.963 -201.848 1058.04 0 0
-83.5361 -188.06 985.768 0 0
-16.4909 -191.759 1005.16 0 0
-117.156 -187.422 996.705 0 0
-48.7556 -186.315 990.816 0 0
19.7406 -194.061 1032.01 0 0
-157.8 -194.497 1049.59 0 0
-80.8953 -182.792 986.424 0 0
-13.7667 -186.58 1006.86 0 0
-114.252 -181.687 995.141 0 0
-46.0452 -180.89 990.771 0 0
22.4438 -187.436 1026.63 0 0
-153.977 -187.597 1043.13 0 0
-78.2764 -177.575 987.4 0 0
-11.0394 -181.484 1009.14 0 0
-111.784 -176.646 997.392 0 0
-43.4886 -176.087 994.236 0 0
25.3055 -182.223 1028.88 0 0
-150.002 -180.542 1035.37 0 0
-75.5893 -172.204 987.556 0 0
-8.25439 -175.401 1005.89 0 0
62.9354 -182.511 1046.66 0 0
-108.769 -170.741 994.754 0 0
-40.7084 -170.39 992.712 0 0
28.127 -176.655 1029.22 0 0
-145.907 -173.379 1026.47 0 0
-72.8355 -166.681 986.819 0 0
-5.50446 -169.89 1005.82 0 0
-193.294 -183.602 1104.88 0 0
-107.399 -167.405 1007.41 0 0
-37.9658 -164.837 991.954 0 0
30.8508 -170.535 1026.24 0 0
-142.286 -166.812 1020.63 0 0
-70.2361 -161.512 988.198 0 0
-2.75471 -164.367 1005.67 0 0
-190.102 -177.402 1103.88 0 0
-104.881 -162.263 1009.68 0 0
-35.2784 -159.522 992.628 0 0
33.6836 -165.06 1027.08 0 0
-139.133 -160.812 1017.97 0 0
-67.6173 -156.3 989.403 0 0
-0.00579227 -158.974 1006.33 0 0
-188.33 -172.508 1111.23 0 0
-102.092 -156.697 1009.38 0 0
-32.6358 -154.43 994.783 0 0
36.5622 -159.755 1029.08 0 0
-136.54 -155.463 1019.38 0 0
-64.9682 -151.019 990.246 0 0
2.75142 -153.834 1008.7 0 0
-183.994 -165.267 1103.45 0 0
-99.5092 -151.447 1011.18 0 0
-29.9012 -148.915 994.27 0 0
39.2644 -153.696 1026.19 0 0
-133.604 -149.722 1018.24 0 0
-61.9733 -144.932 985.664 0 0
5.49024 -147.824 1005.34 0 0
-178.616 -157.156 1089.04 0 0
-96.9157 -146.177 1012.96 0 0
-27.2233 -143.69 995.728 0 0
42.0729 -148.098 1026.27 0 0
-130.742 -144.069 1017.63 0 0
-59.3289 -139.661 986.493 0 0
8.25876 -142.683 1007.84 0 0
-174.666 -150.365 1083.01 0 0
-92.9275 -138.817 999.839 0 0
-24.4505 -137.959 993.656 0 0
44.8644 -142.444 1025.96 0 0
-127.601 -138.117 1014.77 0 0
-56.7578 -134.565 988.678 0 0
11.0428 -137.537 1010.51 0 0
-169.588 -142.663 1069.66 0 0
-89.9441 -132.981 997.064 0 0
-21.7701 -132.744 995.288 0 0
47.5487 -136.49 1023.38 0 0
-125.035 -132.79 1016.46 0 0
-54.1681 -129.43 990.739 0 0
13.7698 -131.676 1007.93 0 0
-164.863 -135.337 1058.1 0 0
-86.8476 -126.988 992.821 0 0
-18.9756 -126.809 991.42 0 0
50.3709 -130.961 1023.88 0 0
-122.259 -127.236 1016.48 0 0
-51.2027 -123.393 985.786 0 0
16.463 -125.693 1004.16 0 0
89.0627 -131.572 1051.13 0 0
-160.495 -128.372 1048.45 0 0
-84.2146 -121.677 993.775 0 0
-16.2729 -121.443 991.864 0 0
53.3031 -125.678 1026.45 0 0
-119.481 -121.679 1016.49 0 0
-48.5109 -118.011 985.844 0 0
19.117 -119.635 999.412 0 0
-157.819 -122.788 1049.72 0 0
-81.6488 -116.459 995.612 0 0
-13.5218 -115.68 988.949 0 0
56.0936 -120.034 1026.17 0 0
-117.175 -116.592 1020.6 0 0
-45.7567 -112.475 984.564 0 0
21.8294 -114.07 998.521 0 0
-155.559 -117.509 1053.84 0 0
-78.85 -110.907 994.636 0 0
-10.8144 -110.23 988.562 0 0
58.6387 -113.919 1021.65 0 0
-112.935 -109.605 1007.66 0 0
-42.9443 -106.792 981.793 0 0
24.5217 -108.447 997.013 0 0
-149.922 -109.731 1034.82 0 0
-76.015 -105.309 993.117 0 0
-8.11332 -104.84 988.7 0 0
61.4336 -108.338 1021.68 0 0
-109.007 -102.988 996.926 0 0
-40.1779 -101.216 979.775 0 0
27.2409 -102.974 996.793 0 0
-147.001 -104.008 1034.17 0 0
-73.1036 -99.6113 990.451 0 0
-5.38891 -99.0333 984.703 0 0
64.28 -102.838 1022.54 0 0
-106.395 -97.6417 997.991 0 0
-37.5217 -95.9158 980.351 0 0
30.056 -97.8188 999.802 0 0
-144.316 -98.4509 1035.18 0 0
-70.456 -94.2766 991.291 0 0
-2.69288 -93.497 983.094 0 0
67.2618 -97.5191 1025.39 0 0
-103.593 -92.1198 997.276 0 0
-34.9149 -90.7457 982.4 0 0
32.7976 -92.3774 1000.06 0 0
-141.563 -92.8424 1035.75 0 0
-67.5337 -88.5784 988.179 0 0
-0.00565983 -88.1431 983.323 0 0
-181.966 -93.3078 1073.68 0 0
-100.755 -86.5714 996.167 0 0
-32.0498 -84.8988 976.92 0 0
35.4686 -86.7571 998.303 0 0
-136.696 -85.9008 1020.55 0 0
-64.5427 -82.8043 983.762 0 0
2.67337 -82.4952 980.09 0 0
-176.87 -86.3827 1060.72 0 0
-98.2404 -81.2979 998.284 0 0
-29.3245 -79.4095 975.095 0 0
38.0075 -80.8954 993.341 0 0
-133.134 -79.8581 1014.66 0 0
-61.6746 -77.202 980.913 0 0
5.3573 -77.2081 980.991 0 0
-174.482 -80.8207 1063.84 0 0
-95.1866 -75.5823 994.887 0 0
-26.6826 -74.144 975.954 0 0
40.5723 -75.1862 989.672 0 0
-130.032 -74.1239 1012.1 0 0
-59.4462 -72.3909 988.443 0 0
7.99786 -71.4796 975.998 0 0
-170.973 -74.7419 1060.11 0 0
-92.3322 -70.0411 993.435 0 0
-24.0296 -68.8507 976.551 0 0
43.2695 -69.7628 989.488 0 0
-127.124 -68.5147 1010.98 0 0
-56.3797 -66.5568 982.09 0 0
10.7114 -66.4273 980.179 0 0
81.7506 -69.8967 1031.37 0 0
-165.322 -67.8172 1042.75 0 0
-89.6368 -64.6246 993.658 0 0
-21.278 -63.2672 972.786 0 0
46.1253 -64.565 992.741 0 0
-124.259 -62.936 1010.15 0 0
-53.4071 -60.8595 976.821 0 0
13.402 -61.1207 981.012 0 0
84.9585 -64.5537 1036.11 0 0
-160.851 -61.497 1032.35 0 0
-86.4766 -58.8899 988.58 0 0
-18.5451 -57.7194 968.93 0 0
48.721 -58.9951 990.345 0 0
-121.052 -57.2032 1006.45 0 0
-50.689 -55.4668 975.896 0 0
15.983 -55.409 974.879 0 0
88.3588 -59.2706 1042.82 0 0
-156.883 -55.4482 1024.86 0 0
-83.6824 -53.4267 987.494 0 0
-15.9143 -52.4808 970.01 0 0
51.4714 -53.6261 991.179 0 0
-117.79 -51.4777 1002.1 0 0
-48.0879 -50.2011 977.246 0 0
18.6375 -50.052 974.344 0 0
91.6798 -53.8459 1048.2 0 0
-154.075 -49.8432 1024.81 0 0
-80.6685 -47.8417 983.658 0 0
-13.198 -46.9472 965.267 0 0
-197.849 -49.5884 1080.28 0 0
-114.648 -45.8383 998.589 0 0
-45.3969 -44.8391 976.822 0 0
21.2716 -44.664 973.007 0 0
95.4446 -48.5734 1058.17 0 0
-150.532 -44.0239 1019.79 0 0
-77.9664 -42.4569 983.49 0 0
-10.6799 -42.1453 976.272 0 0
-192.96 -43.2485 1069.55 0 0
-112.055 -40.4284 999.808 0 0
-42.4476 -39.2408 970.438 0 0
23.9141 -39.3165 972.311 0 0
-147.06 -38.2706 1015.06 0 0
-75.0539 -36.9699 980.561 0 0
-7.88654 -36.2348 961.064 0 0
-186.143 -36.6351 1047.64 0 0
-109.264 -34.9442 999.281 0 0
-39.7873 -33.929 970.25 0 0
26.6355 -34.0825 974.639 0 0
-143.593 -32.5644 1010.19 0 0
-71.9281 -31.4147 974.525 0 0
-5.30806 -31.2666 969.93 0 0
62.6915 -32.1479 997.269 0 0
-181.988 -30.6902 1040.26 0 0
-106.262 -29.4063 996.74 0 0
-37.0792 -28.5816 968.787 0 0
29.2734 -28.7285 973.766 0 0
-140.437 -26.9661 1007.36 0 0
-69.2351 -26.0761 974.114 0 0
-2.64806 -25.8785 966.731 0 0
65.4827 -26.7225 998.263 0 0
-178.501 -24.9134 1036.52 0 0
-103.047 -23.8437 992.015 0 0
-34.3342 -23.2199 966.063 0 0
32.1872 -23.5898 981.454 0 0
-137.53 -21.435 1006.24 0 0
-66.3374 -20.6775 970.674 0 0
-0.00554057 -20.5055 962.602 0 0
68.4148 -21.3286 1001.24 0 0
-174.003 -19.0645 1026.7 0 0
-99.5979 -18.2851 984.726 0 0
-31.6331 -17.9043 964.219 0 0
34.7636 -18.1688 978.46 0 0
-219.472 -17.1812 1084.99 0 0
-135.044 -15.9654 1008.22 0 0
-63.626 -15.3569 969.788 0 0
2.62801 -15.2567 963.462 0 0
71.2657 -15.8804 1002.85 0 0
-170.559 -13.4015 1022.87 0 0
-96.7837 -12.8854 983.481 0 0
-28.9129 -12.5962 961.407 0 0
37.3829 -12.8008 977.018 0 0
-217.317 -11.2918 1089.06 0 0
-131.052 -10.3559 998.793 0 0
-60.9101 -10.0445 968.754 0 0
5.27815 -10.0211 966.499 0 0
-268.899 -8.8361 1157.31 0 0
-167.538 -7.79918 1021.5 0 0
-94.1676 -7.51465 984.236 0 0
-26.2474 -7.32988 960.035 0 0
40.1732 -7.48183 979.936 0 0
-216.459 -5.39087 1099.82 0 0
-127.638 -4.86955 993.466 0 0
-57.9174 -4.72033 963.022 0 0
7.88332 -4.71543 962.022 0 0
77.1383 -4.94052 1007.94 0 0
-164.6 -2.21281 1020.6 0 0
-91.0729 -2.12454 979.886 0 0
-23.5862 -2.07824 958.53 0 0
42.9187 -2.12797 981.467 0 0
-206.432 0.601259 1063.65 0 0
-124.528 0.559816 990.334 0 0
-54.9754 0.541329 957.629 0 0
10.5536 0.545917 965.746 0 0
80.1264 0.571433 1010.88 0 0
-160.732 3.34421 1013.79 0 0
-88.442 3.2341 980.413 0 0
-21.0295 3.17147 961.426 0 0
-198.395 6.25436 1036.84 0 0
-121.707 5.96823 989.404 0 0
-52.3801 5.77901 958.037 0 0
13.1911 5.82449 965.575 0 0
83.2828 6.12672 1015.68 0 0
-157.208 8.84412 1008.96 0 0
-85.2231 8.53987 974.251 0 0
-18.3245 8.39219 957.403 0 0
48.3173 8.60901 982.139 0 0
-193.499 11.7969 1025.91 0 0
-119.198 11.3958 991.028 0 0
-49.6486 10.9915 955.866 0 0
15.7941 11.0776 963.357 0 0
86.2777 11.709 1018.26 0 0
-154.031 14.3211 1006.23 0 0
-81.9723 13.7672 967.314 0 0
-15.722 13.6387 958.286 0 0
51.0652 13.9956 983.357 0 0
-191.266 17.4575 1028.98 0 0
-116.318 16.789 989.573 0 0
-47.0256 16.2136 955.659 0 0
18.5009 16.4094 967.203 0 0
-237.647 21.4079 1086.73 0 0
-151.275 19.8212 1006.19 0 0
-79.3111 19.0513 967.105 0 0
-13.1327 18.921 960.493 0 0
53.7274 19.3622 982.886 0 0
-187.979 23.0247 1026.39 0 0
-112.675 22.0157 981.408 0 0
-44.3208 21.3934 953.667 0 0
21.1689 21.7219 968.312 0 0
-234.426 27.3197 1085.57 0 0
-148.125 25.2539 1003.48 0 0
-76.4815 24.2793 964.759 0 0
-10.5024 24.1606 960.043 0 0
56.363 24.7131 981.997 0 0
-184.552 28.5398 1022.95 0 0
-110.083 27.4033 982.213 0 0
-41.8949 26.7223 957.802 0 0
23.8975 27.1082 971.634 0 0
-233.032 33.4804 1092.95 0 0
-144.709 30.5973 998.835 0 0
-73.7651 29.5217 963.723 0 0
-7.89531 29.473 962.132 0 0
59.4101 30.2664 988.033 0 0
-181.262 34.0393 1020.17 0 0
-107.356 32.7602 981.831 0 0
-39.2019 31.8975 955.976 0 0
26.5903 32.4651 972.988 0 0
-225.191 38.623 1069.89 0 0
-141.328 35.8926 994.259 0 0
-70.8134 34.635 959.422 0 0
-5.25874 34.689 960.918 0 0
62.1599 35.696 988.813 0 0
-178.023 39.5166 1017.59 0 0
-104.377 38.0199 979.054 0 0
-36.6392 37.1748 957.291 0 0
29.2363 37.7667 972.534 0 0
-227.464 45.512 1094.91 0 0
-138.484 41.2904 993.352 0 0
-68.1277 39.8431 958.533 0 0
-2.63073 39.921 960.406 0 0
64.9895 41.182 990.745 0 0
-174.851 44.979 1015.32 0 0
-101.173 43.1474 973.977 0 0
-34.0606 42.4557 958.364 0 0
31.9525 43.1616 974.298 0 0
-221.743 50.8717 1081.6 0 0
-135.472 46.619 991.184 0 0
-65.5746 45.1293 959.513 0 0
-0.0055622 45.4514 966.361 0 0
67.7467 46.6321 991.464 0 0
-172.307 50.5976 1016.69 0 0
-98.1784 48.3085 970.692 0 0
-31.5277 47.8265 961.008 0 0
34.7405 48.6628 977.812 0 0
-215.102 55.8285 1063.39 0 0
-132.389 51.891 988.392 0 0
-63.0248 50.4333 960.625 0 0
2.62885 50.5983 963.769 0 0
70.7718 52.285 995.896 0 0
-168.737 55.8939 1011.95 0 0
-95.9185 53.8359 974.69 0 0
-28.919 53.1135 961.61 0 0
37.4374 54.0432 978.442 0 0
-209.703 60.918 1050.9 0 0
-129.332 57.1377 985.687 0 0
-60.3523 55.6418 959.882 0 0
5.2545 55.7743 962.168 0 0
-241.603 63.1189 1039.84 0 0
-165.436 61.2279 1008.68 0 0
-93.1155 59.0764 973.239 0 0
-26.295 58.3805 961.776 0 0
40.0748 59.3372 977.536 0 0
-204.408 65.8821 1038.59 0 0
-126.73 62.5715 986.401 0 0
-57.9253 61.097 963.155 0 0
7.90383 61.1838 964.524 0 0
-243.67 70.2181 1061.21 0 0
-162.896 66.8314 1010.03 0 0
-90.3282 64.3065 971.872 0 0
-23.6923 63.709 962.843 0 0
42.8412 64.824 979.694 0 0
-200.971 71.3478 1035.51 0 0
-124.086 67.9928 986.817 0 0
-55.2084 66.2613 961.687 0 0
10.5539 66.5427 965.771 0 0
-226.27 71.4419 997.311 0 0
-159.703 72.1579 1007.31 0 0
-87.6392 69.5938 971.513 0 0
-21.0872 69.0602 964.064 0 0
45.4758 70.1131 978.762 0 0
-197.465 76.746 1031.98 0 0
-121.243 73.2995 985.633 0 0
-52.5537 71.4834 961.213 0 0
13.1913 71.8088 965.589 0 0
-235.143 80.8835 1049.05 0 0
-156.922 77.6507 1007.13 0 0
-85.3061 75.1892 975.199 0 0
-18.4548 74.3421 964.213 0 0
48.4708 75.9648 985.258 0 0
-193.579 81.937 1026.33 0 0
-118.476 78.6397 985.03 0 0
-49.8688 76.6498 960.105 0 0
15.7994 76.9353 963.681 0 0
-240.562 89.7089 1086.48 0 0
-153.872 82.9965 1005.19 0 0
-82.4791 80.3633 973.296 0 0
-15.8351 79.6935 965.184 0 0
51.1713 81.3628 985.401 0 0
-190.04 87.211 1022.38 0 0
-115.869 84.0863 985.752 0 0
-47.2816 81.963 960.861 0 0
18.4709 82.3701 965.633 0 0
-234.124 94.2524 1070.62 0 0
-150.89 88.3547 1003.63 0 0
-79.9314 85.8051 974.669 0 0
-13.1758 84.8341 963.639 0 0
54.1698 87.241 990.98 0 0
-186.637 92.4988 1019.06 0 0
-113.337 89.6039 987.169 0 0
-44.8758 87.6469 965.609 0 0
21.1222 87.6983 966.176 0 0
-228.641 98.9982 1058.78 0 0
-148.221 93.8885 1004.13 0 0
-77.3321 91.21 975.488 0 0
-10.5906 90.5198 968.106 0 0
57.1023 93.023 994.878 0 0
-183.13 97.6852 1015.06 0 0
-110.656 95.0155 987.324 0 0
-42.3676 93.2144 968.608 0 0
23.8572 93.3482 969.999 0 0
-223.516 103.751 1048.32 0 0
-144.811 98.9236 999.543 0 0
-74.6884 96.5724 975.786 0 0
-8.00461 96.5393 975.452 0 0
60.4259 99.4563 1004.93 0 0
-178.952 102.431 1007.17 0 0
-107.915 100.374 986.938 0 0
-39.9751 99.1424 974.83 0 0
26.6713 99.2561 975.948 0 0
-218.605 108.467 1038.6 0 0
-142.026 104.349 999.168 0 0
-72.0228 101.909 975.808 0 0
-5.36829 102.445 980.936 0 0
-249.619 109.961 1026.05 0 0
-175.904 107.756 1005.48 0 0
-104.946 105.497 984.398 0 0
-37.33 104.526 975.34 0 0
29.4093 104.842 978.289 0 0
-215.23 113.862 1036.02 0 0
-139.081 109.643 997.636 0 0
-69.5628 107.564 978.724 0 0
-2.7037 108.479 987.044 0 0
-251.991 117.994 1047.57 0 0
-173.021 113.165 1004.7 0 0
-102.306 110.934 984.888 0 0
-34.6627 109.855 975.306 0 0
32.7268 112.4 997.906 0 0
-211.85 119.217 1033.35 0 0
-136.098 114.881 995.764 0 0
-66.7474 112.678 976.673 0 0
-0.00568793 114.009 988.205 0 0
-239.465 118.923 1006.94 0 0
-169.81 118.334 1001.96 0 0
-99.6237 116.329 984.981 0 0
-32.0571 115.403 977.144 0 0
35.5342 118.121 1000.15 0 0
-207.585 124.006 1026.23 0 0
-133.119 120.092 993.842 0 0
-64.1629 118.174 977.972 0 0
2.68819 119.087 985.524 0 0
-250.038 131.432 1063.63 0 0
-167.011 123.767 1001.59 0 0
-96.5773 121.269 981.384 0 0
-29.4275 120.915 978.518 0 0
38.2357 123.484 999.306 0 0
-203.378 128.729 1019.2 0 0
-130.234 125.363 992.559 0 0
-61.7949 124.134 982.826 0 0
5.34536 123.626 978.806 0 0
-250.675 139.215 1078.88 0 0
-164.066 129.079 1000.33 0 0
-93.8808 126.616 981.238 0 0
-26.8141 126.554 980.763 0 0
41.2 129.68 1004.98 0 0
-200.111 133.978 1016.76 0 0
-127.411 130.676 991.7 0 0
-59.1582 129.616 983.655 0 0
8.03863 129.263 980.975 0 0
-244.42 143.177 1064.48 0 0
-160.829 134.128 997.212 0 0
-91.0117 131.709 979.227 0 0
-24.3398 133.045 989.154 0 0
44.5227 136.944 1018.15 0 0
-196.213 138.745 1010.99 0 0
-124.766 136.17 992.224 0 0
-56.5979 135.301 985.892 0 0
10.7221 134.652 981.164 0 0
-237.307 146.403 1045.96 0 0
-157.625 139.158 994.199 0 0
-88.6066 137.484 982.236 0 0
-21.6592 138.601 990.217 0 0
47.5651 143.292 1023.73 0 0
-193.057 143.98 1008.94 0 0
-121.828 141.332 990.388 0 0
-53.9165 140.726 986.138 0 0
13.4647 140.649 985.602 0 0
-232.182 150.65 1035.85 0 0
-154.795 144.489 993.479 0 0
-86.4995 143.814 988.842 0 0
-18.9834 144.249 991.832 0 0
50.7121 149.919 1030.82 0 0
-189.263 148.681 1003.45 0 0
-118.736 146.273 987.192 0 0
-51.2481 146.194 986.661 0 0
16.5627 149.688 1010.24 0 0
-228.461 155.707 1031.83 0 0
-151.607 149.454 990.393 0 0
-83.7138 149.073 987.865 0 0
-16.3346 150.244 995.626 0 0
53.6785 155.987 1033.68 0 0
-260.135 157.215 1023.29 0 0
-185.445 153.279 997.664 0 0
-116.045 151.679 987.25 0 0
-48.6924 152.029 989.531 0 0
19.4819 156.478 1018.49 0 0
-224.558 160.574 1026.88 0 0
-148.798 154.763 989.715 0 0
-81.0065 154.46 987.779 0 0
-13.6735 156.378 1000.05 0 0
57.3708 164.117 1049.54 0 0
-182.498 158.541 996.461 0 0
-113.441 157.207 988.076 0 0
-46.2366 158.291 994.891 0 0
22.3307 162.517 1021.45 0 0
-220.199 165.024 1019.69 0 0
-145.893 159.954 988.361 0 0
-78.4774 160.209 989.936 0 0
-11.0016 162.757 1005.68 0 0
60.4485 170.444 1053.18 0 0
-179.543 163.778 995.183 0 0
-110.529 162.299 986.191 0 0
-43.5129 163.714 994.794 0 0
25.2788 169.146 1027.8 0 0
-215.218 168.877 1009.4 0 0
-143.208 165.376 988.475 0 0
-75.7028 165.471 989.038 0 0
-8.28303 168.874 1009.38 0 0
63.0424 175.409 1048.44 0 0
-176.714 169.115 994.572 0 0
-107.802 167.642 985.91 0 0
-40.9207 169.679 997.89 0 0
28.0441 174.49 1026.18 0 0
-212.191 174.176 1008.13 0 0
-140.076 170.258 985.45 0 0
-73.2776 171.529 992.809 0 0
-5.52999 174.583 1010.48 0 0
65.7508 180.708 1045.94 0 0
-267.563 193.022 1099.81 0 0
-173.924 174.481 994.163 0 0
-104.684 172.335 981.938 0 0
-38.1818 175.083 997.596 0 0
30.9446 180.657 1029.36 0 0
-208.852 179.187 1005.32 0 0
-137.835 176.223 988.694 0 0
-70.5702 176.972 992.898 0 0
-2.77574 180.617 1013.34 0 0
-255.234 192.021 1061.05 0 0
-170.62 179.299 990.757 0 0
-102.543 178.649 987.166 0 0
-35.6436 181.497 1002.9 0 0
34.0916 188.124 1039.52 0 0
-205.506 184.147 1002.4 0 0
-134.725 181.082 985.719 0 0
-67.9428 182.633 994.165 0 0
-0.00586592 187.219 1019.13 0 0
-249.877 195.895 1050.72 0 0
-167.903 184.705 990.702 0 0
-99.9997 184.332 988.699 0 0
-33.2326 188.858 1012.97 0 0
36.8536 193.39 1037.29 0 0
-202.577 189.45 1001.47 0 0
-132.035 186.476 985.749 0 0
-65.2347 188.095 994.308 0 0
2.7826 192.981 1020.14 0 0
-243.857 199.07 1037.33 0 0
-164.911 189.794 988.999 0 0
-97.9271 190.965 995.1 0 0
-30.6614 195.657 1019.55 0 0
39.541 198.319 1033.42 0 0
-199.405 194.501 999.294 0 0
-129.251 191.733 985.069 0 0
-62.7032 194.108 997.272 0 0
5.57103 198.557 1020.13 0 0
-239.695 203.614 1031.62 0 0
-162.018 194.973 987.842 0 0
-95.1719 196.333 994.733 0 0
-27.792 200.635 1016.53 0 0
42.271 203.512 1031.11 0 0
-196.416 199.702 997.982 0 0
-126.574 197.141 985.185 0 0
-59.964 199.516 997.053 0 0
8.4217 205.653 1027.72 0 0
-236.302 208.747 1029.13 0 0
-159.308 200.362 987.786 0 0
-92.405 201.666 994.218 0 0
-25.1458 207.284 1021.91 0 0
45.0066 208.765 1029.21 0 0
-277.399 217.311 1057.1 0 0
-193.36 204.811 996.295 0 0
-124.017 202.751 986.272 0 0
-57.3705 205.439 999.349 0 0
11.2157 210.986 1026.33 0 0
-232.815 213.755 1026.16 0 0
-156.276 205.325 985.691 0 0
-89.8885 207.566 996.447 0 0
-22.4538 213.835 1026.54 0 0
47.6098 213.449 1024.69 0 0
-190.327 209.915 994.673 0 0
-121.395 208.268 986.868 0 0
-54.7905 211.488 1002.12 0 0
13.9949 216.191 1024.41 0 0
-229.704 219.073 1024.79 0 0
-153.788 210.997 987.015 0 0
-87.5386 213.927 1000.72 0 0
-19.6658 219.648 1027.48 0 0
50.3672 218.862 1023.81 0 0
-187.497 215.226 994.084 0 0
-118.568 213.43 985.792 0 0
-52.4661 218.695 1010.11 0 0
16.761 221.341 1022.33 0 0
-226.215 223.994 1021.68 0 0
-150.873 216.081 985.593 0 0
-84.7466 219.251 1000.05 0 0
-16.9678 226.743 1034.22 0 0
53.0259 223.869 1021.11 0 0
-185.225 221.192 996.482 0 0
-115.829 218.736 985.417 0 0
-50.3587 227.166 1023.39 0 0
19.4996 226.282 1019.41 0 0
-222.728 228.866 1018.51 0 0
-148.56 222.04 988.133 0 0
-82.0811 224.905 1000.88 0 0
-14.0824 231.436 1029.95 0 0
55.6863 228.914 1018.72 0 0
-181.986 226 993.668 0 0
-113.398 224.643 987.7 0 0
-48.1886 235.831 1036.89 0 0
22.1898 230.854 1015.01 0 0
-219.854 234.339 1018.1 0 0
-145.697 227.189 987.033 0 0
-79.6267 231.194 1004.43 0 0
-11.2086 235.836 1024.6 0 0
58.3705 234.08 1016.97 0 0
-179.177 231.312 993.153 0 0
-111.049 230.772 990.834 0 0
-45.9781 244.821 1051.15 0 0
24.9567 236.331 1014.7 0 0
-216.617 239.403 1015.97 0 0
-142.723 232.135 985.125 0 0
-77.459 238.464 1011.98 0 0
-8.38467 240.77 1021.77 0 0
61.0358 239.191 1015.07 0 0
-176.502 236.795 993.378 0 0
-108.579 236.709 993.015 0 0
-42.8592 249.139 1045.16 0 0
27.5803 240.57 1009.21 0 0
-214.063 245.211 1017.02 0 0
-140.137 237.702 985.876 0 0
-74.9469 244.826 1015.42 0 0
-5.56723 245.275 1017.29 0 0
63.8022 244.709 1014.94 0 0
-173.557 241.905 992.064 0 0
-106.169 242.832 995.863 0 0
-39.6685 252.726 1036.44 0 0
30.3247 245.972 1008.74 0 0
-211.611 251.161 1018.6 0 0
-137.581 243.338 986.875 0 0
-72.2709 250.723 1016.83 0 0
-2.77405 249.712 1012.73 0 0
-258.073 267.471 1072.86 0 0
-170.421 246.715 989.602 0 0
-103.351 248.046 994.941 0 0
-36.6781 257.289 1032.01 0 0
33.0528 251.264 1007.85 0 0
-208.093 255.828 1015.02 0 0
-134.823 248.622 986.435 0 0
-69.8332 257.542 1021.83 0 0
-0.00581027 254.425 1009.46 0 0
-255.33 273.54 1073.65 0 0
-167.656 252.034 989.244 0 0
-100.919 254.212 997.791 0 0
-33.608 260.995 1024.42 0 0
35.7475 256.343 1006.16 0 0
-205.304 261.358 1014.95 0 0
-131.887 253.553 984.641 0 0
-67.3275 264.256 1026.21 0 0
2.75007 259.622 1008.21 0 0
-252.6 279.635 1074.52 0 0
-165.197 257.826 990.717 0 0
-98.4632 260.384 1000.55 0 0
-30.7402 266.01 1022.17 0 0
38.4307 261.387 1004.4 0 0
-202.65 267.065 1015.55 0 0
-129.309 259.164 985.51 0 0
-64.6418 270.366 1028.1 0 0
5.50275 264.98 1007.63 0 0
-249.394 285.202 1073.37 0 0
-162.868 263.856 993.028 0 0
-96.0526 266.754 1003.94 0 0
-27.778 269.964 1016.02 0 0
41.1187 266.505 1003 0 0
-199.619 272.269 1014.26 0 0
-126.869 265.081 987.481 0 0
-62.2662 277.926 1035.33 0 0
8.2061 268.82 1001.41 0 0
-245.968 290.489 1071.22 0 0
-160.163 269.299 993.083 0 0
-93.3221 272.283 1004.09 0 0
-24.9172 274.598 1012.62 0 0
43.7094 271.052 999.548 0 0
-195.986 276.599 1009.82 0 0
-124.881 272.03 993.142 0 0
-59.9907 286.232 1044.99 0 0
10.9281 273.913 1000.02 0 0
-241.648 294.649 1065.09 0 0
-157.531 274.873 993.607 0 0
-90.9469 278.905 1008.18 0 0
-22.0428 278.787 1007.75 0 0
46.4322 276.461 999.347 0 0
-193.507 282.53 1011.29 0 0
-122.229 277.6 993.647 0 0
-56.9667 291.089 1041.93 0 0
13.6312 278.758 997.792 0 0
-237.797 299.288 1060.9 0 0
-154.532 279.792 991.787 0 0
-88.4981 285.407 1011.69 0 0
-19.2092 283.132 1003.63 0 0
49.0452 281.244 996.934 0 0
-190.821 288.177 1011.71 0 0
-119.717 283.516 995.344 0 0
-53.5612 293.728 1031.19 0 0
16.3334 283.775 996.253 0 0
-234.282 304.289 1058.12 0 0
-152.122 285.78 993.757 0 0
-86.0149 291.895 1015.02 0 0
-16.4448 288.249 1002.34 0 0
51.9839 287.877 1001.05 0 0
-187.959 293.558 1011.19 0 0
-117.292 289.689 997.865 0 0
-50.3874 297.27 1023.98 0 0
19.0324 288.854 994.989 0 0
-231.817 310.647 1060.07 0 0
-149.782 291.946 996.257 0 0
-83.6257 298.82 1019.72 0 0
-13.6837 293.273 1000.79 0 0
54.6491 292.969 999.748 0 0
-184.956 298.7 1009.89 0 0
-114.574 295.167 997.941 0 0
-47.4171 301.778 1020.29 0 0
21.7217 293.881 993.595 0 0
-229.067 316.646 1060.76 0 0
-147.297 297.875 997.874 0 0
-81.2976 306.124 1025.51 0 0
-10.9369 298.44 999.767 0 0
57.3658 298.35 999.468 0 0
-182.89 305.379 1013.73 0 0
-112.226 301.646 1001.34 0 0
-44.3497 305.437 1013.92 0 0
24.4644 299.641 994.684 0 0
-226.071 322.306 1060.3 0 0
-144.667 303.535 998.547 0 0
-78.7523 312.755 1028.88 0 0
-8.2195 304.474 1001.64 0 0
60.0321 303.483 998.376 0 0
-179.909 310.559 1012.55 0 0
-109.711 307.741 1003.36 0 0
-41.3684 309.411 1008.81 0 0
27.0985 304.127 991.581 0 0
-223.64 328.79 1062.52 0 0
-142.425 310.055 1001.98 0 0
-76.4988 320.723 1036.45 0 0
-5.44728 308.01 995.369 0 0
62.7952 309.109 998.92 0 0
-177.248 316.285 1013.16 0 0
-107.234 314.006 1005.86 0 0
-38.588 314.739 1008.21 0 0
29.8247 309.713 992.108 0 0
-220.706 334.554 1062.38 0 0
-139.816 315.824 1002.9 0 0
-74.1151 328.38 1042.77 0 0
-2.72576 313.367 995.1 0 0
-258.532 341.391 1074.76 0 0
-174.188 321.287 1011.47 0 0
-105.076 321.312 1011.55 0 0
-35.7063 319.126 1004.67 0 0
32.5253 315.027 991.764 0 0
-216.947 339.027 1058.21 0 0
-137.093 321.35 1003.04 0 0
-71.3001 334.246 1043.29 0 0
-0.00572202 318.495 994.127 0 0
-251.698 341.974 1058.38 0 0
-171.65 327.25 1012.81 0 0
-102.514 327.492 1013.56 0 0
-32.8233 323.272 1000.5 0 0
35.1769 319.91 990.095 0 0
-214.238 345.107 1059.12 0 0
-134.563 327.349 1004.62 0 0
-67.9949 337.698 1036.38 0 0
2.71043 323.783 993.677 0 0
-241.785 337.947 1028.52 0 0
-168.671 332.371 1011.55 0 0
-100.239 334.688 1018.6 0 0
-30.0586 328.414 999.503 0 0
-211.66 351.423 1060.71 0 0
-132.033 333.387 1006.27 0 0
-64.7256 341.064 1029.44 0 0
5.42018 328.827 992.505 0 0
-264.944 380.908 1140.29 0 0
-166.033 338.162 1012.33 0 0
-97.7994 341.458 1022.2 0 0
-27.3076 333.647 998.812 0 0
-208.616 356.974 1059.97 0 0
-129.306 338.95 1006.45 0 0
-61.6756 345.369 1025.51 0 0
8.1126 333.41 990.001 0 0
-242.308 358.28 1055.28 0 0
-163.107 343.362 1011.34 0 0
-95.4257 348.582 1026.72 0 0
-24.5505 338.737 997.72 0 0
-205.978 363.227 1061.31 0 0
-127.132 346.023 1011.04 0 0
-58.4983 348.745 1018.99 0 0
10.8048 338.386 988.726 0 0
-253.119 384.874 1115.65 0 0
-160.391 348.996 1011.65 0 0
-93.0566 355.867 1031.57 0 0
-21.7025 342.285 992.195 0 0
-202.692 368.329 1059.3 0 0
-124.94 353.167 1015.69 0 0
-55.5854 353.505 1016.66 0 0
13.4853 343.23 987.111 0 0
-251.836 393.735 1123.53 0 0
-157.995 355.356 1014.01 0 0
-90.6413 363.127 1036.19 0 0
-18.9538 347.038 990.281 0 0
-199.44 373.452 1057.4 0 0
-122.276 359.049 1016.62 0 0
-52.5731 357.476 1012.17 0 0
16.1376 347.637 984.31 0 0
86.1459 359.077 1016.7 0 0
-155.148 360.724 1013.52 0 0
-88.1518 370.232 1040.24 0 0
-16.2348 352.19 989.543 0 0
-196.472 379.084 1056.99 0 0
-119.646 365.06 1017.89 0 0
-49.5102 360.85 1006.15 0 0
18.79 352.303 982.318 0 0
-152.578 366.748 1014.86 0 0
-85.5442 376.958 1043.11 0 0
-13.4717 356.06 985.282 0 0
-193.127 383.956 1054.5 0 0
-117.165 371.58 1020.51 0 0
-46.6445 365.447 1003.67 0 0
21.509 358.238 983.867 0 0
-245.819 417.59 1138.33 0 0
-150.14 373.13 1017.13 0 0
-82.4648 381.605 1040.23 0 0
-10.7625 360.91 983.821 0 0
-190.096 389.416 1053.68 0 0
-114.779 378.489 1024.11 0 0
-43.7218 369.419 999.568 0 0
-230.796 403.014 1082.46 0 0
-147.49 379.025 1018.03 0 0
-79.2986 385.721 1036.02 0 0
-8.08239 366.702 984.931 0 0
-186.92 394.552 1052.01 0 0
-112.559 386.075 1029.41 0 0
-40.8664 373.757 996.566 0 0
26.8441 368.396 982.271 0 0
-212.579 381.546 1009.97 0 0
-144.936 385.198 1019.64 0 0
-75.9672 388.828 1029.25 0 0
-5.36475 370.332 980.289 0 0
-184.064 400.346 1052.12 0 0
-110.185 393.274 1033.54 0 0
-38.0384 378.172 993.849 0 0
-223.105 411.578 1073.93 0 0
-142.427 391.537 1021.64 0 0
-72.6426 391.699 1022.06 0 0
-2.67733 374.592 977.419 0 0
-180.34 404.196 1047.2 0 0
-107.608 399.845 1035.92 0 0
-35.1996 382.278 990.412 0 0
-220.936 418.902 1077.67 0 0
-139.764 397.492 1022.59 0 0
-69.4709 395.136 1016.53 0 0
-0.00563709 380.694 979.371 0 0
-177.183 409.242 1045.46 0 0
-104.947 406.169 1037.61 0 0
-32.4314 386.965 988.553 0 0
-220.355 429.403 1089.36 0 0
-137.248 403.904 1024.67 0 0
-66.2329 397.933 1009.52 0 0
2.66365 384.927 976.529 0 0
71.3505 395.772 1004.04 0 0
-174.167 414.579 1044.51 0 0
-102.768 414.491 1044.29 0 0
-29.602 390.69 984.321 0 0
-221.249 443.112 1108.76 0 0
-135.039 411.307 1029.18 0 0
-63.1997 401.712 1005.17 0 0
5.31985 389.309 974.134 0 0
74.4263 403.055 1008.53 0 0
-170.943 419.385 1042.26 0 0
-100.149 421.193 1046.75 0 0
-26.8612 395.332 982.486 0 0
-217.712 448.131 1106.19 0 0
-132.429 417.573 1030.76 0 0
-60.1094 404.899 999.47 0 0
7.98593 394.8 974.543 0 0
-167.84 424.441 1040.69 0 0
-97.386 427.346 1047.81 0 0
-24.1142 399.684 979.986 0 0
-213.044 450.7 1097.72 0 0
-130.077 424.728 1034.46 0 0
-57.0946 408.34 994.543 0 0
10.6599 400.506 975.465 0 0
-165.028 430.215 1040.89 0 0
-94.7775 434.245 1050.64 0 0
-21.4177 404.706 979.174 0 0
-209.849 456.279 1096.7 0 0
-127.55 431.401 1036.91 0 0
-54.2404 412.744 992.062 0 0
-162.328 436.296 1041.83 0 0
-91.2849 437.017 1043.55 0 0
-18.7073 409.319 977.407 0 0
-206.797 462.152 1096.41 0 0
-125.013 438.111 1039.38 0 0
-51.3116 416.406 987.883 0 0
-159.791 442.852 1043.85 0 0
-87.1007 436.055 1027.83 0 0
-16.0179 414.203 976.326 0 0
-203.625 467.745 1095.47 0 0
-122.398 444.614 1041.3 0 0
-48.4661 420.547 984.932 0 0
-157.39 449.853 1046.86 0 0
-83.369 436.842 1016.59 0 0
-13.3408 419.275 975.708 0 0
-200.276 472.897 1093.54 0 0
-119.997 451.985 1045.18 0 0
-45.6695 424.96 982.686 0 0
21.3085 421.505 974.696 0 0
-154.768 456.281 1048.49 0 0
-80.0335 439.343 1009.57 0 0
-10.6483 423.596 973.379 0 0
-195.644 474.886 1084.43 0 0
-117.548 459.295 1048.82 0 0
-42.8961 429.459 980.692 0 0
-152.195 462.904 1050.51 0 0
-76.9867 443.209 1005.81 0 0
-7.96769 427.848 970.953 0 0
-192.648 480.735 1084.25 0 0
-115.36 467.78 1055.03 0 0
-40.1022 433.596 977.93 0 0
-149.577 469.441 1052.29 0 0
-73.9157 446.763 1001.45 0 0
-5.31265 433.074 970.769 0 0
-188.928 484.723 1079.93 0 0
-113.322 477.108 1062.96 0 0
-37.3883 438.464 976.865 0 0
-287.612 470.44 1041.76 0 0
-147.273 477.048 1056.39 0 0
-70.8451 450.121 996.766 0 0
-2.66212 438.876 971.865 0 0
-186.727 492.608 1084.29 0 0
-111.324 486.887 1071.7 0 0
-34.6139 442.471 973.931 0 0
-223.734 498.783 1091.31 0 0
-144.771 484.115 1059.22 0 0
-67.8341 453.654 992.574 0 0
-0.00558841 443.755 970.915 0 0
-183.685 498.324 1083.83 0 0
-108.765 494.43 1075.36 0 0
-31.9177 447.319 972.895 0 0
-142.325 491.457 1062.57 0 0
-64.9877 458.141 990.543 0 0
-180.3 503.069 1081.29 0 0
-104.851 495.704 1065.46 0 0
-29.2151 451.97 971.458 0 0
-139.21 496.512 1060.96 0 0
-62.1316 462.451 988.182 0 0
5.30051 454.22 970.592 0 0
-178.193 511.417 1086.47 0 0
-99.2738 488.417 1037.61 0 0
-26.4814 455.932 968.594 0 0
-229.432 551.918 1165.74 0 0
-136.733 503.875 1064.26 0 0
-59.3012 466.836 986.033 0 0
-175.907 519.374 1090.7 0 0
-94.4416 483.863 1016.13 0 0
-23.8423 461.391 968.937 0 0
-224.596 554.219 1157.24 0 0
-134.32 511.579 1068.2 0 0
-56.6084 472.247 986.074 0 0
-172.725 524.729 1089.44 0 0
-90.844 485.04 1007.04 0 0
-21.1691 466.144 967.809 0 0
-219.132 554.721 1145.21 0 0
-131.657 518.432 1070.3 0 0
-53.7337 476.049 982.796 0 0
-170.59 533.32 1094.85 0 0
-87.876 489.346 1004.58 0 0
-18.4994 470.818 966.541 0 0
-215.006 558.395 1139.93 0 0
-129.67 528.106 1078.1 0 0
-50.9184 480.206 980.312 0 0
-167.243 538.164 1092.54 0 0
-84.7778 492.79 1000.42 0 0
-211.012 562.289 1135.21 0 0
-127.153 535.812 1081.76 0 0
-48.069 483.856 976.862 0 0
-164.53 545.041 1094.35 0 0
-81.6165 495.668 995.218 0 0
-207.008 566.03 1130.29 0 0
-124.475 542.94 1084.18 0 0
-45.5074 490.367 979.199 0 0
-161.998 552.59 1097.46 0 0
-78.7381 500.105 993.224 0 0
-203.182 570.145 1126.21 0 0
-122.202 551.988 1090.35 0 0
-42.8676 496.146 980.041 0 0
-158.324 556.223 1092.81 0 0
-75.8738 504.541 991.272 0 0
-200.567 577.634 1128.82 0 0
-120.351 563.234 1100.67 0 0
-40.1884 501.499 980.032 0 0
-155.591 563.117 1094.6 0 0
-72.9461 508.44 988.317 0 0
-197.838 584.86 1130.86 0 0
-116.692 566.096 1094.57 0 0
-37.4056 505.452 977.316 0 0
-152.942 570.381 1097.06 0 0
-70.0879 512.697 986.112 0 0
-194.359 589.866 1128.6 0 0
-108.614 546.489 1045.61 0 0
-34.6003 508.827 973.551 0 0
32.5382 518.552 992.158 0 0
-151.086 580.771 1105.42 0 0
-67.1859 516.5 983.09 0 0
-191.421 596.494 1129.47 0 0
-102.526 535.341 1013.68 0 0
-31.9481 514.292 973.821 0 0
-244.748 642.303 1209.95 0 0
-149.208 591.348 1113.96 0 0
-64.2461 519.83 979.24 0 0
-188.117 601.974 1128.17 0 0
-98.3169 533.083 999.061 0 0
-236.798 636.439 1186.68 0 0
-145.77 595.828 1110.96 0 0
-61.3733 523.511 976.121 0 0
-185.185 608.643 1129.1 0 0
-95.7643 539.549 1000.92 0 0
-229.735 632.413 1167.28 0 0
-144.32 608.592 1123.31 0 0
-58.5777 527.7 974.003 0 0
-180.879 610.696 1121.54 0 0
-92.0207 539.118 990.082 0 0
696.14 726.06 1333.4 0 0
-224.251 632.327 1155.46 0 0
-141.743 616.882 1127.24 0 0
-55.6245 530.252 968.936 0 0
-177.551 615.917 1119.88 0 0
-88.7198 540.906 983.492 0 0
707.656 741.598 1348.4 0 0
-219.73 634.707 1148.34 0 0
-138.734 623.371 1127.83 0 0
-52.9343 535.127 968.174 0 0
-175.064 624.087 1123.57 0 0
-86.3195 548.111 986.784 0 0
-217.409 643.406 1152.67 0 0
-135.971 631.022 1130.49 0 0
-50.1583 539.028 965.679 0 0
-171.797 629.509 1122.28 0 0
-83.5063 552.739 985.417 0 0
-213.731 648.109 1149.84 0 0
-134.516 645.042 1144.4 0 0
-47.882 548.468 973.062 0 0
-170.096 640.796 1131.38 0 0
-80.4248 555.447 980.687 0 0
-210.943 655.5 1151.78 0 0
-129.16 640.255 1124.99 0 0
-45.2099 553.638 972.798 0 0
21.604 562.409 988.21 0 0
-166.428 644.75 1127.48 0 0
-77.5237 559.217 977.905 0 0
-207.941 662.26 1152.59 0 0
-115.023 589.694 1026.29 0 0
-42.5403 558.818 972.558 0 0
24.7969 579.301 1008.21 0 0
-163.078 649.846 1125.63 0 0
-74.6667 563.176 975.502 0 0
-204.074 666.223 1148.56 0 0
-110.39 585.609 1009.58 0 0
-39.664 561.053 967.245 0 0
27.6711 587.322 1012.53 0 0
-161.434 661.873 1135.7 0 0
-72.3976 571.647 980.886 0 0
-200.673 671.626 1147.06 0 0
-107.588 590.894 1009.18 0 0
-37.0991 567.549 969.309 0 0
-158.589 669.178 1137.57 0 0
-69.3554 574.021 975.807 0 0
-198.536 681.323 1152.86 0 0
-104.144 592.512 1002.58 0 0
-155.161 674.012 1135.24 0 0
-66.474 577.495 972.673 0 0
-194.865 685.796 1149.79 0 0
-100.468 592.474 993.329 0 0
-153.273 685.654 1144.31 0 0
-63.605 580.893 969.469 0 0
-192.674 695.519 1155.5 0 0
-97.5496 596.662 991.264 0 0
-149.371 688.34 1138.4 0 0
-61.1067 587.651 971.881 0 0
-190.22 704.446 1159.8 0 0
-95.1505 604.052 994.509 0 0
