ply
format ascii 1.0
element vertex 1663
property float x
property float y
property float z
property float u
property float v
end_header
124.268 -260.779 658.895 0 0
138.933 -214.011 540.729 0 0
886.823 -891.721 2253.06 0 0
1044.61 -894.993 2261.33 0 0
1192.43 -889.984 2248.67 0 0
1344.09 -888.662 2245.33 0 0
-1591.48 -941.735 2395.98 0 0
-1429.76 -943.062 2399.35 0 0
-1256.62 -936.227 2381.96 0 0
-1093.26 -935.725 2380.68 0 0
-927.661 -932.793 2373.22 0 0
-764.955 -932.147 2371.58 0 0
-599.226 -926.48 2357.16 0 0
-437.306 -924.701 2352.64 0 0
62.1175 -279.146 710.206 0 0
106.719 -269.228 684.974 0 0
815.361 -888.221 2259.82 0 0
975.245 -893.219 2272.54 0 0
1123.81 -887.905 2259.02 0 0
1277.7 -887.567 2258.16 0 0
-1712.93 -959.187 2457.47 0 0
-1498.77 -930.487 2383.94 0 0
-1343.47 -935.788 2397.52 0 0
-1178.06 -934.541 2394.32 0 0
-1010.13 -930.567 2384.14 0 0
-845.855 -929.08 2380.33 0 0
-681.827 -927.222 2375.57 0 0
-516.159 -921.275 2360.34 0 0
-101.235 -481.824 1234.45 0 0
40.8083 -291.388 746.546 0 0
84.8638 -269.301 689.957 0 0
121.079 -246.996 632.812 0 0
139.737 -210.041 538.131 0 0
901.904 -888.191 2275.57 0 0
1060.67 -890.932 2282.59 0 0
1213.49 -888.618 2276.67 0 0
1352.99 -878.182 2249.93 0 0
-1602.62 -939.005 2422.73 0 0
-1437.02 -938.973 2422.64 0 0
-1266.43 -935.255 2413.05 0 0
-1097.71 -932.007 2404.67 0 0
-929.306 -927.939 2394.18 0 0
-764.638 -926.654 2390.86 0 0
-599.044 -923.244 2382.06 0 0
-434.529 -919.573 2372.59 0 0
18.1513 -321.801 830.279 0 0
64.1539 -275.672 711.261 0 0
830.255 -885.161 2283.8 0 0
987.566 -886.279 2286.69 0 0
1142.18 -884.998 2283.38 0 0
1291.54 -880.45 2271.65 0 0
-1736.78 -962.695 2501.49 0 0
-1514.79 -931.308 2419.93 0 0
-1347.78 -930.177 2417 0 0
-1181.34 -929.175 2414.39 0 0
-1012.44 -925.606 2405.12 0 0
-847.607 -925.081 2403.75 0 0
-680.373 -921.057 2393.3 0 0
-515.16 -918.089 2385.59 0 0
-95.746 -464.807 1207.77 0 0
42.7196 -286.44 744.292 0 0
87.3962 -267.508 695.099 0 0
126.924 -251.697 654.017 0 0
141.144 -207.005 537.887 0 0
917.178 -884.481 2298.26 0 0
1074.44 -884.655 2298.71 0 0
1227.88 -882.035 2291.9 0 0
1378.41 -878.16 2281.83 0 0
-1612.42 -935.286 2447.65 0 0
-1435.58 -929.085 2431.43 0 0
-1267.41 -927.607 2427.56 0 0
-1103.05 -928.898 2430.94 0 0
-932.984 -924.984 2420.7 0 0
-765.61 -922.63 2414.53 0 0
-597.739 -918.218 2402.99 0 0
-431.696 -914.337 2392.83 0 0
20.1951 -313.755 821.1 0 0
846.788 -883.411 2311.9 0 0
1006.33 -884.78 2315.48 0 0
1154.81 -877.375 2296.1 0 0
1305.48 -873.198 2285.17 0 0
-1684.79 -924.252 2436.21 0 0
-1528.08 -930.197 2451.88 0 0
-1356.68 -927.566 2444.94 0 0
-1188.75 -926.899 2443.18 0 0
-1015.44 -921.138 2428 0 0
-848.595 -920.134 2425.35 0 0
-680.847 -917.427 2418.22 0 0
-513.191 -913.148 2406.94 0 0
-92.368 -457.824 1206.76 0 0
44.7265 -282.197 743.833 0 0
89.7642 -265.09 698.742 0 0
142.409 -203.772 537.116 0 0
932.321 -880.283 2320.31 0 0
1091.89 -881.095 2322.45 0 0
1244.25 -876.623 2310.66 0 0
1390.73 -869.487 2291.85 0 0
-1617.79 -928.826 2466.03 0 0
-1439.08 -922.297 2448.7 0 0
-1276.52 -925.758 2457.88 0 0
-1105.88 -923.519 2451.94 0 0
-935.838 -921.072 2445.44 0 0
-765.24 -916.895 2434.35 0 0
-597.783 -915.206 2429.87 0 0
-429.298 -910.037 2416.15 0 0
22.1603 -305.418 810.885 0 0
862.82 -880.686 2338.22 0 0
1022.16 -880.299 2337.19 0 0
1175.6 -875.634 2324.8 0 0
1322.62 -867.853 2304.15 0 0
-1730 -939.086 2511.5 0 0
-1540.3 -928.197 2482.37 0 0
-1366.57 -925.424 2474.96 0 0
-1196.12 -924.403 2472.23 0 0
-1018.03 -916.167 2450.2 0 0
-851.679 -917.338 2453.33 0 0
-680.335 -912.385 2440.09 0 0
-511.971 -909.509 2432.4 0 0
-89.6613 -454.226 1214.78 0 0
46.6612 -277.544 742.266 0 0
92.7411 -264.311 706.874 0 0
143.921 -200.896 537.277 0 0
947.652 -875.907 2342.53 0 0
1107.87 -876.016 2342.82 0 0
1260.09 -870.575 2328.27 0 0
1416.16 -868.711 2323.28 0 0
-1631.46 -926.94 2497.27 0 0
-1450.04 -920.113 2478.88 0 0
-1279.27 -919.121 2476.2 0 0
-1109.46 -918.629 2474.88 0 0
-935.684 -914.083 2462.63 0 0
-767.04 -913.656 2461.48 0 0
-596.654 -910.333 2452.53 0 0
-426.893 -905.739 2440.15 0 0
24.0254 -296.647 799.196 0 0
875.476 -874.158 2355.07 0 0
1034.07 -872.181 2349.74 0 0
1190.74 -869.335 2342.08 0 0
1344.38 -865.21 2330.96 0 0
-1757.84 -943.993 2562.08 0 0
-1547.29 -922.841 2504.67 0 0
-1370.45 -919.033 2494.34 0 0
-1197.97 -917.476 2490.11 0 0
-1020.19 -910.683 2471.67 0 0
-853.188 -912.715 2477.19 0 0
-681.869 -909.994 2469.8 0 0
-510.101 -904.687 2455.4 0 0
-82.7332 -428.883 1164.03 0 0
48.8151 -274.188 744.171 0 0
95.874 -263.749 715.839 0 0
144.918 -197.317 535.535 0 0
964.466 -872.518 2368.09 0 0
1126.59 -872.747 2368.71 0 0
1277.93 -865.62 2349.37 0 0
-1623.1 -912.43 2494.92 0 0
-1456.9 -915.121 2502.28 0 0
-1288.59 -917.036 2507.52 0 0
-1115.08 -915.264 2502.67 0 0
-941.144 -912.44 2494.95 0 0
-767.483 -908.691 2484.7 0 0
-595.684 -905.643 2476.36 0 0
25.982 -289.735 792.244 0 0
890.268 -869.442 2377.38 0 0
1051.39 -868.338 2374.36 0 0
1210.48 -866.076 2368.18 0 0
1365.86 -862.005 2357.04 0 0
-1750.89 -930.015 2562.16 0 0
-1568.29 -925.583 2549.95 0 0
-1378.76 -915.44 2522 0 0
-1205.34 -914.624 2519.76 0 0
-1026.43 -908.675 2503.37 0 0
-854.281 -907.527 2500.2 0 0
-681.235 -904.615 2492.18 0 0
-509.055 -901.295 2483.03 0 0
51.1083 -271.496 747.963 0 0
99.6466 -264.659 729.126 0 0
146.022 -193.912 534.22 0 0
978.289 -866.08 2386.02 0 0
1144.29 -868.322 2392.2 0 0
1293.89 -859.106 2366.81 0 0
1450.95 -856.35 2359.21 0 0
-1673.68 -930.709 2583.53 0 0
-1470.65 -914.245 2537.82 0 0
-1293.27 -911.458 2530.09 0 0
-1114.98 -907.065 2517.89 0 0
-942.665 -906.824 2517.22 0 0
-767.782 -903.452 2507.86 0 0
-595.724 -902.419 2505 0 0
-125.554 -447.197 1241.36 0 0
28.0448 -284.363 789.353 0 0
905.07 -864.376 2399.39 0 0
1066.84 -862.602 2394.47 0 0
1225.26 -858.948 2384.33 0 0
1386.53 -857.917 2381.47 0 0
-1786.96 -938.634 2625.45 0 0
-1581.99 -923.714 2583.71 0 0
-1379.8 -906.868 2536.59 0 0
-1213.11 -911.866 2550.57 0 0
-1031.25 -905.228 2532.01 0 0
-856.762 -903.684 2527.69 0 0
-680.401 -898.888 2514.27 0 0
-507.034 -896.144 2506.6 0 0
2.31816 -303.839 849.865 0 0
53.145 -267.368 747.852 0 0
104.038 -266.825 746.334 0 0
147.276 -190.723 533.47 0 0
996.456 -863.122 2414.23 0 0
1160.67 -862.552 2412.64 0 0
1311.15 -853.187 2386.44 0 0
1478 -855.375 2392.56 0 0
-1670.89 -918.933 2590.14 0 0
-1481.1 -911.064 2567.96 0 0
-1300.23 -907.305 2557.37 0 0
-1120.36 -903.187 2545.76 0 0
-942.614 -899.581 2535.6 0 0
-770.588 -901.037 2539.7 0 0
-593.315 -895.423 2523.88 0 0
-123.25 -444.337 1252.43 0 0
30.2089 -280.107 789.521 0 0
922.86 -861.747 2428.96 0 0
1085.6 -859.175 2421.71 0 0
1240.96 -852.225 2402.12 0 0
1410.11 -855.255 2410.66 0 0
-1788.4 -928.759 2638.16 0 0
-1579.66 -912.323 2591.48 0 0
-1388.02 -902.859 2564.59 0 0
-1216.11 -905.349 2571.67 0 0
-1032.58 -898.562 2552.39 0 0
-857.046 -897.397 2549.08 0 0
-679.132 -892.507 2535.19 0 0
-505.429 -891.698 2532.89 0 0
4.60715 -296.997 843.629 0 0
147.836 -186.673 530.251 0 0
1012.32 -857.776 2436.54 0 0
1177.48 -856.799 2433.76 0 0
1332.77 -849.772 2413.8 0 0
1499.15 -850.579 2416.09 0 0
-1496.62 -910.745 2607.24 0 0
-1305.61 -901.869 2581.83 0 0
-1128.04 -900.959 2579.23 0 0
-947.398 -896.808 2567.34 0 0
-769.323 -893.749 2558.58 0 0
-592.854 -891.304 2551.58 0 0
-119.894 -437.735 1253.13 0 0
32.4744 -276.706 792.142 0 0
771.909 -857.795 2455.66 0 0
938.343 -856.541 2452.07 0 0
1099.47 -851.557 2437.8 0 0
1265.87 -851.427 2437.43 0 0
1429.54 -849.706 2432.5 0 0
-1779.32 -913.377 2635.4 0 0
-1580.41 -902.626 2604.38 0 0
-1399.37 -900.652 2598.68 0 0
-1221.45 -900.404 2597.96 0 0
-1034.56 -892.338 2574.69 0 0
-858.962 -892.694 2575.72 0 0
-679.707 -888.457 2563.49 0 0
-503.205 -886.127 2556.77 0 0
6.91723 -292.558 844.127 0 0
149.265 -183.749 530.178 0 0
1030.05 -853.628 2463 0 0
1197.02 -852.675 2460.25 0 0
1354.95 -846.304 2441.87 0 0
-1920.29 -932.653 2712.41 0 0
-1698.94 -913.304 2656.14 0 0
-1496.33 -900.602 2619.19 0 0
-1315.01 -899.009 2614.56 0 0
-1127.87 -892.307 2595.07 0 0
-952.294 -893.956 2599.87 0 0
-770.153 -888.79 2584.84 0 0
-590.615 -884.447 2572.21 0 0
34.7472 -273.221 794.6 0 0
785.318 -851.633 2476.78 0 0
956.018 -852.924 2480.53 0 0
1119.12 -848.072 2466.42 0 0
1282.46 -844.642 2456.45 0 0
1445.65 -841.918 2448.53 0 0
-1573.09 -888.276 2604.05 0 0
-1404.85 -894.461 2622.18 0 0
-1225.92 -894.645 2622.72 0 0
-1040.52 -889.37 2607.26 0 0
-862.054 -889.063 2606.35 0 0
-680.423 -884.482 2592.92 0 0
9.29548 -290.156 850.613 0 0
1046.73 -848.227 2486.64 0 0
1212.77 -845.518 2478.7 0 0
1379.04 -843.613 2473.11 0 0
-1718.73 -913.157 2698.61 0 0
-1512.59 -900.225 2660.4 0 0
-1322.63 -894.702 2644.07 0 0
-1132.86 -887.589 2623.05 0 0
-953.689 -887.656 2623.25 0 0
-771.723 -884.558 2614.09 0 0
-589.921 -879.835 2600.14 0 0
-19.952 -308.659 912.165 0 0
37.0633 -269.927 797.703 0 0
800.842 -847.355 2504.15 0 0
973.449 -848.649 2507.97 0 0
1136.75 -842.655 2490.26 0 0
1303.83 -840.662 2484.37 0 0
1469.87 -838.536 2478.09 0 0
-1570.32 -876.466 2611.28 0 0
-1413.38 -890.005 2651.61 0 0
-1228.86 -887.613 2644.48 0 0
-1045.02 -884.961 2636.58 0 0
-862.777 -882.844 2630.28 0 0
-680.323 -879.339 2619.83 0 0
-148.814 -406.055 1209.77 0 0
11.6299 -285.735 851.296 0 0
128.118 -196.656 585.9 0 0
887.084 -837.921 2496.44 0 0
1063.02 -842.15 2509.04 0 0
1236.63 -843.621 2513.42 0 0
1400.32 -838.79 2499.03 0 0
-1946.67 -922.525 2771.07 0 0
-1737.42 -912.087 2739.71 0 0
-1517.97 -893.124 2682.75 0 0
-1325.91 -887.281 2665.2 0 0
-1138.13 -882.897 2652.03 0 0
-957.226 -883.195 2652.93 0 0
-771.823 -878.513 2638.86 0 0
-589.256 -875.19 2628.88 0 0
-17.0661 -296.844 891.655 0 0
39.4818 -267.177 802.541 0 0
817.879 -844.186 2535.75 0 0
988.363 -841.802 2528.59 0 0
1156.64 -838.524 2518.75 0 0
1327.39 -837.661 2516.15 0 0
1492.97 -834.108 2505.48 0 0
-1572.61 -867.39 2627.02 0 0
-1419.41 -883.778 2676.66 0 0
-1238.17 -884.977 2680.29 0 0
-1047.33 -878.528 2660.75 0 0
-864.678 -877.693 2658.22 0 0
-679.506 -873.169 2644.52 0 0
-143.755 -394.633 1195.21 0 0
13.9325 -280.589 849.808 0 0
128.076 -191.001 578.476 0 0
908.995 -838.185 2538.57 0 0
1081.97 -837.801 2537.41 0 0
1255.83 -838.109 2538.34 0 0
1419.52 -832.38 2520.99 0 0
-1970.51 -922.077 2815.96 0 0
-1736.16 -900.341 2749.58 0 0
-1513.99 -880.409 2688.71 0 0
-1335.56 -883.915 2699.42 0 0
-1140.8 -876.011 2675.28 0 0
-959.959 -877.822 2680.81 0 0
-773.019 -873.59 2667.89 0 0
-588.372 -870.137 2657.34 0 0
-14.5036 -289.471 884.026 0 0
484.282 -840.803 2567.76 0 0
657.557 -838.007 2559.22 0 0
832.592 -838.157 2559.68 0 0
1005.78 -836.72 2555.29 0 0
1170.06 -829.391 2532.9 0 0
1347.62 -832.151 2541.33 0 0
1518.18 -830.456 2536.16 0 0
-1584.22 -863.267 2658.55 0 0
-1433.59 -882.377 2717.4 0 0
-1236.2 -874.108 2691.94 0 0
-1051.48 -873.474 2689.99 0 0
-866.385 -872.194 2686.04 0 0
-680.232 -868.872 2675.82 0 0
-48.1133 -317.493 977.764 0 0
16.1117 -273.506 842.3 0 0
128.687 -186.434 574.149 0 0
926.779 -834.066 2568.63 0 0
1101.19 -833.221 2566.02 0 0
1275 -832.212 2562.92 0 0
1442.92 -828.072 2550.17 0 0
-1972.99 -911.384 2830.56 0 0
-1744.62 -893.491 2774.99 0 0
-1532.18 -880.385 2734.29 0 0
-1344.88 -880.09 2733.37 0 0
-1146.14 -871.003 2705.15 0 0
-962.302 -871.929 2708.03 0 0
-773.152 -867.335 2693.76 0 0
-586.484 -863.526 2681.93 0 0
-12.1049 -285.056 885.322 0 0
321.81 -842.417 2616.37 0 0
497.804 -837.709 2601.75 0 0
671.096 -832.129 2584.42 0 0
849.002 -833.404 2588.37 0 0
1025.01 -832.697 2586.18 0 0
1189.4 -824.15 2559.63 0 0
1367.25 -825.921 2565.13 0 0
1549.86 -829.839 2577.3 0 0
-1584.02 -852.536 2670.47 0 0
-1446.07 -879.634 2755.35 0 0
-1244.01 -870.002 2725.17 0 0
-1055.61 -868.214 2719.57 0 0
-867.004 -865.456 2710.94 0 0
-680.018 -863.257 2704.05 0 0
-44.1139 -303.033 949.214 0 0
18.4677 -269.683 844.75 0 0
944.747 -829.637 2598.74 0 0
1120.32 -828.147 2594.07 0 0
1297.11 -827.842 2593.11 0 0
1459.93 -819.765 2567.81 0 0
-1981.22 -903.191 2853.57 0 0
-1742.68 -881.173 2784 0 0
-1545.24 -877.091 2771.11 0 0
-1354.3 -876.075 2767.9 0 0
-1155.13 -868.532 2744.07 0 0
-964.015 -865.307 2733.88 0 0
-774.159 -861.928 2723.2 0 0
-585.931 -858.798 2713.31 0 0
-9.64907 -279.177 882.041 0 0
332.517 -837.064 2644.65 0 0
510.4 -832.431 2630.01 0 0
686.977 -828.635 2618.01 0 0
865.572 -828.339 2617.08 0 0
1041.49 -826.025 2609.77 0 0
1209.45 -818.994 2587.56 0 0
1388.3 -820.19 2591.33 0 0
1571.5 -823.399 2601.47 0 0
-1632.4 -867.533 2764.79 0 0
-1456.43 -875.322 2789.61 0 0
-1253.23 -866.632 2761.92 0 0
-1059.28 -862.383 2748.38 0 0
-870.069 -861.001 2743.97 0 0
-680.105 -857.908 2734.11 0 0
-40.8181 -292.814 933.184 0 0
20.7438 -264.645 843.41 0 0
782.405 -824.005 2626.06 0 0
963.196 -825.15 2629.71 0 0
1136.47 -820.505 2614.91 0 0
1315.98 -821.016 2616.54 0 0
1492.69 -819.868 2612.88 0 0
-1772.62 -884.696 2844.26 0 0
-1548.84 -868.203 2791.24 0 0
-1364.89 -872.547 2805.2 0 0
-1158.21 -861.4 2769.37 0 0
-967.087 -859.735 2764.01 0 0
-775.572 -856.825 2754.66 0 0
-585.77 -854.549 2747.34 0 0
-7.21758 -273.578 879.543 0 0
343.582 -831.894 2674.51 0 0
523.152 -826.846 2658.28 0 0
701.566 -823.043 2646.05 0 0
882.593 -823.236 2646.67 0 0
1060.7 -821.1 2639.8 0 0
1241.98 -821.692 2641.71 0 0
1418.33 -819.278 2633.95 0 0
1606.96 -823.706 2648.18 0 0
-1676.8 -879.672 2853.18 0 0
-1465.62 -870.055 2821.99 0 0
-1259.31 -860.849 2792.13 0 0
-1062.76 -856.213 2777.09 0 0
-870.457 -853.737 2769.07 0 0
-680.218 -852.469 2764.95 0 0
-38.0466 -286.053 927.802 0 0
23.0707 -260.276 844.196 0 0
799.781 -820.105 2659.98 0 0
979.778 -818.622 2655.17 0 0
1165.14 -821.386 2664.13 0 0
1336.71 -814.993 2643.4 0 0
1524.7 -818.941 2656.21 0 0
-1556.76 -861.552 2819.41 0 0
-1365.36 -862.35 2822.02 0 0
-1163.75 -855.908 2800.94 0 0
-967.747 -851.856 2787.68 0 0
-775.524 -849.966 2781.49 0 0
-584.825 -849.061 2778.53 0 0
-76.7214 -317.639 1039.47 0 0
-4.82061 -269.172 880.86 0 0
355.295 -827.527 2708.06 0 0
536.796 -822.08 2690.24 0 0
717.048 -817.988 2676.85 0 0
901.258 -819.157 2680.67 0 0
1074.1 -811.344 2655.1 0 0
1265.57 -817.824 2676.31 0 0
1443.49 -815.022 2667.14 0 0
1624.88 -814.585 2665.71 0 0
-1680.53 -870.046 2872.9 0 0
-1475.91 -865.178 2856.83 0 0
-1265.99 -855.253 2824.06 0 0
-1069.42 -852.393 2814.61 0 0
-873.427 -848.842 2802.89 0 0
-680.462 -847.065 2797.02 0 0
-35.3798 -279.947 924.388 0 0
25.5805 -257.699 850.926 0 0
817.547 -816.039 2694.57 0 0
999.028 -813.876 2687.43 0 0
1192.06 -820.333 2708.75 0 0
1360.1 -810.167 2675.18 0 0
1543.61 -810.537 2676.4 0 0
-1381.09 -861.549 2870.76 0 0
-1172.53 -852.544 2840.75 0 0
-971.366 -846.41 2820.31 0 0
-776.708 -844.312 2813.32 0 0
-71.5161 -301.975 1006.21 0 0
-2.39607 -262.519 874.737 0 0
365.983 -820.084 2732.59 0 0
550.845 -817.307 2723.34 0 0
734.79 -814.915 2715.37 0 0
916.818 -811.791 2704.96 0 0
1090.64 -803.669 2677.9 0 0
1273.7 -803.71 2678.03 0 0
1467.63 -809.734 2698.1 0 0
1661.51 -814.396 2713.64 0 0
-1272.47 -849.291 2855.92 0 0
-1073.05 -845.935 2844.64 0 0
-873.429 -840.897 2827.7 0 0
-678.841 -839.222 2822.07 0 0
-32.6497 -273.192 918.666 0 0
463.938 -814.113 2737.63 0 0
643.93 -805.252 2707.83 0 0
834.212 -810.342 2724.95 0 0
1015.46 -806.404 2711.71 0 0
1211.1 -813.341 2735.03 0 0
1388.74 -807.954 2716.92 0 0
1575.72 -808.63 2719.19 0 0
-1176.2 -845.231 2868.64 0 0
-976.041 -841.671 2856.56 0 0
-778.88 -839.562 2849.4 0 0
-67.983 -293.099 994.754 0 0
-0.0050298 -257.48 873.863 0 0
378.921 -816.938 2772.61 0 0
565.16 -812.294 2756.85 0 0
749.832 -808.285 2743.25 0 0
934.418 -805.805 2734.83 0 0
1109.85 -797.576 2706.9 0 0
1304.14 -803.309 2726.36 0 0
1495.12 -805.829 2734.91 0 0
1688.53 -808.952 2745.51 0 0
-876.955 -836.17 2864.46 0 0
-678.918 -833.357 2854.82 0 0
-30.0875 -267.715 917.108 0 0
289.313 -813.114 2785.48 0 0
477.735 -809.849 2774.29 0 0
662.758 -804.315 2755.34 0 0
850.761 -804.046 2754.41 0 0
1030.01 -797.103 2730.63 0 0
1220.96 -799.95 2740.38 0 0
1412.48 -802.368 2748.67 0 0
1606.43 -805.433 2759.17 0 0
-64.1752 -282.863 978.159 0 0
2.38562 -252.915 874.599 0 0
390.065 -809.175 2798.19 0 0
578.253 -804.96 2783.61 0 0
766.359 -802.745 2775.95 0 0
951.999 -799.339 2764.17 0 0
1131.53 -792.781 2741.49 0 0
1330.33 -799.668 2765.31 0 0
1519.91 -799.987 2766.41 0 0
1721.68 -805.946 2787.02 0 0
-110.227 -320.845 1120.09 0 0
-27.4562 -261.515 912.969 0 0
300.316 -806.993 2817.27 0 0
490.106 -802.522 2801.66 0 0
679.622 -800.241 2793.7 0 0
867.155 -797.137 2782.86 0 0
1045.18 -787.978 2750.89 0 0
1235.86 -789.706 2756.92 0 0
1441.73 -799.394 2790.74 0 0
1636.49 -801.379 2797.67 0 0
-61.2522 -276.39 974.194 0 0
4.79244 -248.974 877.559 0 0
402.003 -802.439 2828.36 0 0
592.255 -798.36 2813.98 0 0
781.313 -795.065 2802.37 0 0
969.205 -792.115 2791.97 0 0
1152.86 -787.245 2774.81 0 0
1356.77 -795.625 2804.34 0 0
1552.67 -797.816 2812.07 0 0
1767.97 -808.393 2849.35 0 0
-104.752 -307.634 1094.87 0 0
-24.8427 -255.312 908.655 0 0
311.867 -801.488 2852.49 0 0
503.877 -796.874 2836.07 0 0
695.482 -794.361 2827.13 0 0
885.196 -791.25 2816.06 0 0
1064.04 -781.268 2780.53 0 0
1263.27 -787.016 2800.99 0 0
1467.64 -794.027 2825.94 0 0
1667.72 -797.357 2837.79 0 0
-58.2906 -269.683 969.228 0 0
7.23665 -245.72 883.107 0 0
414.479 -796.09 2861.12 0 0
606.42 -791.424 2844.34 0 0
798.887 -789.543 2837.58 0 0
988.166 -785.861 2824.35 0 0
1173.11 -780.499 2805.08 0 0
1383.77 -791.348 2844.07 0 0
1577.5 -791.035 2842.95 0 0
-100.756 -298.674 1084.07 0 0
-22.3546 -250.296 908.477 0 0
517.027 -789.614 2865.99 0 0
709.925 -786.344 2854.13 0 0
904.065 -785.563 2851.29 0 0
1088.85 -778.369 2825.18 0 0
1284.76 -780.102 2831.47 0 0
1497.65 -790.337 2868.62 0 0
-55.5496 -263.949 967.632 0 0
816.943 -783.913 2873.82 0 0
1007.65 -779.519 2857.71 0 0
-97.3749 -291.496 1079.44 0 0
-19.8521 -245.092 907.6 0 0
1111.11 -773.037 2862.63 0 0
-145.718 -316.657 1184.6 0 0
-52.6456 -257.392 962.894 0 0
12.1909 -238.537 892.358 0 0
-94.198 -284.91 1076.85 0 0
-17.45 -241.22 911.716 0 0
-138.017 -300.465 1147.49 0 0
-49.967 -251.893 961.996 0 0
14.7051 -234.857 896.935 0 0
-89.649 -274.114 1057.9 0 0
-15.0638 -237.908 918.17 0 0
-132.028 -287.971 1123.23 0 0
-47.5872 -247.935 967.071 0 0
17.2979 -231.845 904.313 0 0
-85.6816 -265.004 1044.79 0 0
-12.6094 -233.914 922.215 0 0
58.2077 -270.092 1064.85 0 0
-128.128 -280.017 1116.01 0 0
-44.8866 -242.34 965.841 0 0
19.9311 -228.752 911.689 0 0
-82.6763 -258.824 1042.9 0 0
-10.1458 -230.172 927.452 0 0
-124.279 -272.166 1108.87 0 0
-42.4524 -238.215 970.549 0 0
-79.8375 -253.16 1043.06 0 0
-7.69836 -227.694 938.132 0 0
-120.995 -265.55 1106.57 0 0
-39.8508 -233.209 971.8 0 0
26.7226 -234.656 977.826 0 0
-76.7112 -246.574 1039.33 0 0
-5.20757 -225.753 951.568 0 0
-117.387 -258.217 1101.09 0 0
-37.4054 -229.189 977.312 0 0
33.2346 -259.259 1105.54 0 0
-73.8011 -240.666 1038.36 0 0
-2.65484 -224.64 969.208 0 0
-114.123 -251.638 1098.65 0 0
-35.1311 -226.406 988.485 0 0
36.6711 -256.111 1118.18 0 0
-159.434 -263.99 1166.5 0 0
-71.0726 -235.353 1039.96 0 0
-0.00570274 -224.223 990.778 0 0
-111.003 -245.372 1097.49 0 0
-32.6789 -222.703 996.097 0 0
39.8796 -250.955 1122.46 0 0
-156.814 -258.551 1170.75 0 0
-68.7995 -231.585 1048.64 0 0
2.93456 -237.593 1075.85 0 0
-107.627 -238.54 1093.67 0 0
-30.538 -221.478 1015.45 0 0
42.9624 -244.902 1122.84 0 0
-151.301 -248.354 1153.12 0 0
-66.3718 -227.355 1055.62 0 0
6.01939 -237.393 1102.23 0 0
-104.423 -232.084 1091.43 0 0
-28.4807 -221.514 1041.72 0 0
46.1774 -239.52 1126.4 0 0
-146.278 -238.992 1138.55 0 0
-64.3302 -224.53 1069.65 0 0
9.07519 -232.468 1107.47 0 0
-101.446 -226.13 1091.49 0 0
-26.5972 -223.935 1080.9 0 0
49.2185 -233.182 1125.53 0 0
-142.37 -231.475 1132.23 0 0
-61.9878 -220.752 1079.78 0 0
12.0785 -225.967 1105.28 0 0
-98.4741 -220.19 1091.62 0 0
-23.8122 -219.59 1088.65 0 0
52.3756 -227.379 1127.26 0 0
-138.819 -224.546 1128.51 0 0
-59.0212 -214.795 1079.5 0 0
15.1243 -220.282 1107.08 0 0
-95.4195 -214.063 1090.81 0 0
-20.9769 -215.078 1095.99 0 0
55.4488 -221.184 1127.1 0 0
-135.44 -217.904 1126.07 0 0
-56.3163 -209.809 1084.24 0 0
18.1753 -214.524 1108.6 0 0
-92.324 -207.844 1089.47 0 0
-17.9813 -209.089 1096 0 0
58.2435 -213.971 1121.59 0 0
-131.963 -211.11 1122.68 0 0
-53.603 -204.838 1089.33 0 0
21.1791 -208.203 1107.22 0 0
-89.4155 -202.045 1090.32 0 0
-15.0234 -203.611 1098.77 0 0
61.2366 -207.593 1120.26 0 0
-128.875 -204.942 1122.51 0 0
-50.6083 -198.816 1088.96 0 0
24.1727 -201.875 1105.71 0 0
-179.277 -218.422 1214.52 0 0
-86.4332 -196.079 1090.29 0 0
-11.9966 -197.22 1096.64 0 0
63.9578 -200.401 1114.32 0 0
-125.784 -198.768 1122.3 0 0
-47.695 -193.119 1090.4 0 0
27.1521 -195.52 1103.96 0 0
-83.5626 -190.369 1091.72 0 0
-9.00592 -191.371 1097.47 0 0
66.1917 -191.954 1100.82 0 0
-121.852 -191.277 1114.4 0 0
-44.7305 -187.225 1090.8 0 0
30.11 -189.11 1101.78 0 0
-80.502 -184.226 1090.69 0 0
-5.98907 -184.847 1094.37 0 0
68.8299 -184.94 1094.92 0 0
-118.854 -185.259 1114.85 0 0
-41.7591 -181.306 1091.06 0 0
33.118 -183.067 1101.66 0 0
-77.5926 -178.428 1091.7 0 0
-2.99971 -178.986 1095.11 0 0
71.7296 -178.722 1093.5 0 0
-115.595 -178.837 1112.81 0 0
-38.7076 -175.029 1089.12 0 0
36.0124 -176.471 1098.09 0 0
-74.5407 -172.303 1090.71 0 0
-0.006304 -173.019 1095.24 0 0
74.8847 -173.128 1095.93 0 0
-112.334 -172.417 1110.64 0 0
-35.7672 -169.248 1090.23 0 0
38.8256 -169.645 1092.79 0 0
-155.547 -177.104 1161.29 0 0
-71.6665 -166.59 1092.34 0 0
2.97925 -166.572 1092.23 0 0
78.0065 -167.407 1097.7 0 0
-108.924 -165.776 1106.85 0 0
-32.6653 -162.681 1086.18 0 0
41.521 -162.529 1085.17 0 0
-151.59 -169.878 1155.32 0 0
-68.3915 -159.942 1087.74 0 0
5.94732 -160.131 1089.03 0 0
80.8962 -161.185 1096.2 0 0
-105.276 -158.786 1100.34 0 0
-29.6724 -156.617 1085.31 0 0
44.4276 -156.387 1083.71 0 0
-147.574 -162.617 1148.64 0 0
-65.1923 -153.463 1083.99 0 0
8.86198 -153.104 1081.45 0 0
83.771 -154.968 1094.61 0 0
-101.778 -152.038 1095.06 0 0
-26.5408 -149.753 1078.6 0 0
47.413 -150.536 1084.24 0 0
-144.02 -155.889 1145.34 0 0
-62.0852 -147.196 1081.48 0 0
11.7682 -146.572 1076.89 0 0
86.6589 -148.805 1093.3 0 0
-98.4534 -145.562 1091.39 0 0
-23.5458 -143.572 1076.47 0 0
50.363 -144.569 1083.95 0 0
-138.728 -147.332 1127.77 0 0
-58.8503 -140.617 1076.38 0 0
14.7024 -140.594 1076.2 0 0
89.3452 -142.346 1089.61 0 0
-95.2789 -139.316 1089.21 0 0
-20.6593 -138.06 1079.39 0 0
53.3083 -138.598 1083.59 0 0
-134.384 -139.854 1117.29 0 0
-55.8108 -134.499 1074.51 0 0
17.6663 -134.88 1077.55 0 0
92.4154 -136.525 1090.7 0 0
-92.2028 -133.219 1088.04 0 0
-17.6948 -132.055 1078.53 0 0
56.2416 -132.606 1083.04 0 0
-130.804 -133.21 1112.81 0 0
-52.9534 -128.818 1076.12 0 0
20.5977 -128.901 1076.82 0 0
-88.7457 -126.582 1082.15 0 0
-14.7176 -125.91 1076.41 0 0
59.2425 -126.772 1083.78 0 0
-127.605 -126.971 1111.45 0 0
-50.056 -123.043 1077.07 0 0
23.5354 -122.985 1076.56 0 0
-85.6799 -120.514 1080.79 0 0
-11.7941 -120.217 1078.12 0 0
62.2472 -120.929 1084.52 0 0
-123.598 -119.954 1102.8 0 0
-47.0156 -116.916 1074.87 0 0
26.5045 -117.216 1077.63 0 0
-82.6209 -114.46 1079.42 0 0
-8.85198 -114.385 1078.71 0 0
65.2954 -115.148 1085.91 0 0
-120.272 -113.631 1099.95 0 0
-43.9629 -110.751 1072.08 0 0
29.5273 -111.617 1080.46 0 0
-79.6351 -108.511 1078.94 0 0
-5.90571 -108.531 1079.14 0 0
68.7338 -109.964 1093.39 0 0
-116.452 -106.871 1092.33 0 0
-41.0812 -105.015 1073.35 0 0
32.4873 -105.732 1080.68 0 0
-76.8411 -102.82 1081.13 0 0
-2.94515 -102.256 1075.19 0 0
71.6658 -103.904 1092.52 0 0
-113.264 -100.719 1090.37 0 0
-38.2417 -99.3923 1076.01 0 0
35.5491 -100.127 1083.97 0 0
-73.5608 -96.4836 1076.37 0 0
-0.00620064 -96.5652 1077.28 0 0
-110.016 -94.5287 1087.73 0 0
-35.2075 -93.2637 1073.17 0 0
38.4809 -94.1253 1083.09 0 0
-70.6877 -90.6878 1077.42 0 0
2.94133 -90.7641 1078.33 0 0
-106.528 -88.1566 1082.5 0 0
-32.2268 -87.2687 1071.6 0 0
41.6323 -88.6103 1088.08 0 0
-67.6404 -84.6698 1075.8 0 0
5.88433 -84.8036 1077.5 0 0
-103.856 -82.4659 1085.49 0 0
-29.2368 -81.2412 1069.37 0 0
44.7386 -82.907 1091.3 0 0
-64.5932 -78.6587 1074.02 0 0
8.84774 -79.0753 1079.71 0 0
-101.09 -76.6844 1087.66 0 0
-26.2758 -75.2866 1067.84 0 0
47.5862 -76.7226 1088.2 0 0
-61.277 -72.3381 1067.4 0 0
11.7716 -73.0024 1077.2 0 0
-97.5874 -70.3566 1081.79 0 0
-23.3369 -69.3891 1066.92 0 0
50.812 -71.1252 1093.61 0 0
-140.792 -71.3102 1144.56 0 0
-58.5006 -66.6637 1069.98 0 0
14.6414 -66.7731 1071.74 0 0
-94.361 -64.2591 1078.71 0 0
-20.3181 -63.2376 1061.56 0 0
-137.445 -64.9496 1142.74 0 0
-55.3613 -60.5795 1065.85 0 0
17.6803 -61.293 1078.4 0 0
-91.1688 -58.2064 1075.84 0 0
-17.4341 -57.4926 1062.64 0 0
-133.942 -58.5365 1139.51 0 0
-52.2709 -54.5679 1062.25 0 0
20.694 -55.5747 1081.85 0 0
-87.5972 -51.9508 1068.14 0 0
-14.5519 -51.7632 1064.29 0 0
-127.401 -50.9373 1109.67 0 0
-49.2532 -48.648 1059.8 0 0
23.5621 -49.4734 1077.78 0 0
-84.641 -46.0915 1067.68 0 0
-11.6035 -45.7898 1060.7 0 0
-123.06 -44.3989 1098 0 0
-46.3161 -42.8171 1058.88 0 0
26.3969 -43.3985 1073.26 0 0
-80.9983 -39.8979 1058.22 0 0
-8.66063 -39.7913 1055.4 0 0
-118.275 -37.8261 1081.69 0 0
-43.0143 -36.6809 1048.94 0 0
29.248 -37.4255 1070.24 0 0
-77.455 -33.8285 1049.41 0 0
-5.76853 -33.9789 1054.07 0 0
-114.142 -31.5871 1070.66 0 0
-40.0922 -30.9041 1047.51 0 0
32.4644 -31.8602 1079.92 0 0
-74.3104 -27.9876 1045.52 0 0
-2.87368 -28.0833 1049.1 0 0
-110.317 -25.5258 1062 0 0
-37.239 -25.1844 1047.8 0 0
35.4354 -25.9704 1080.5 0 0
116.965 -27.7988 1156.57 0 0
-71.0749 -22.1542 1040 0 0
-0.00602613 -22.3026 1046.96 0 0
-106.204 -19.4979 1050.04 0 0
-34.0398 -19.2665 1037.58 0 0
38.3701 -20.0537 1079.97 0 0
120.427 -21.5297 1159.46 0 0
-67.7664 -16.3563 1032.9 0 0
2.86705 -16.6445 1051.1 0 0
-102.708 -13.6742 1043.68 0 0
-31.0122 -13.5108 1031.21 0 0
41.1517 -14.0913 1075.52 0 0
-146.447 -11.5725 1116.12 0 0
-64.5543 -10.6454 1026.71 0 0
5.75617 -10.9287 1054.03 0 0
-99.4612 -7.93709 1039.56 0 0
-28.1581 -7.86346 1029.92 0 0
44.1004 -8.21322 1075.73 0 0
-141.018 -5.38003 1097.61 0 0
-61.7794 -5.0351 1027.24 0 0
8.57366 -5.12836 1046.27 0 0
-96.3868 -2.2485 1037.06 0 0
-25.4272 -2.24046 1033.35 0 0
47.3568 -2.34802 1082.96 0 0
-134.825 0.606107 1072.22 0 0
-58.5726 0.576749 1020.29 0 0
11.501 0.594921 1052.44 0 0
-93.2508 3.40994 1033.72 0 0
-22.5156 3.3956 1029.37 0 0
-130.274 6.38833 1059.05 0 0
-55.7074 6.14611 1018.89 0 0
14.3757 6.34753 1052.28 0 0
-236.947 9.26613 1057.11 0 0
-89.8548 9.00399 1027.2 0 0
-19.6417 8.99545 1026.22 0 0
-126.448 12.089 1051.31 0 0
-52.8332 11.6965 1017.18 0 0
17.2929 12.1289 1054.78 0 0
94.4139 12.8131 1114.28 0 0
-86.7423 14.5684 1023.6 0 0
-16.9175 14.6759 1031.16 0 0
-122.609 17.6971 1043.1 0 0
-49.9849 17.2339 1015.8 0 0
20.1183 17.8439 1051.76 0 0
97.7553 18.9621 1117.66 0 0
-83.5857 20.0781 1019.23 0 0
-14.077 20.2815 1029.55 0 0
-119.012 23.2537 1036.6 0 0
-47.3015 22.8321 1017.8 0 0
22.911 23.5094 1048 0 0
-165.331 28.1873 1120.05 0 0
-80.5172 25.5604 1015.67 0 0
-11.2164 25.8033 1025.32 0 0
-115.757 28.8159 1032.84 0 0
-44.0948 28.1255 1008.1 0 0
25.9351 29.4196 1054.48 0 0
-156.474 33.0849 1080.04 0 0
-77.4409 30.9928 1011.75 0 0
-8.41875 31.427 1025.92 0 0
-112.384 34.2945 1027.81 0 0
-41.3725 33.6637 1008.91 0 0
28.9041 35.2902 1057.65 0 0
-150.319 38.176 1057.51 0 0
-74.26 36.3208 1006.12 0 0
-5.61841 37.0616 1026.64 0 0
-109.159 39.7619 1023.91 0 0
-38.4978 39.0606 1005.85 0 0
31.7419 41.0034 1055.88 0 0
-145.55 43.3974 1044.04 0 0
-71.9312 42.0675 1012.05 0 0
-2.83275 42.9865 1034.16 0 0
722.233 63.1206 1518.54 0 0
-187.638 48.2683 1089.57 0 0
-106.073 45.2369 1021.14 0 0
-35.9257 44.7805 1010.84 0 0
34.7335 46.9181 1059.1 0 0
-141.167 48.5785 1032.85 0 0
-69.1369 47.581 1011.64 0 0
-0.00594236 48.5579 1032.41 0 0
729.389 71.7177 1524.82 0 0
-184.251 54.105 1087.16 0 0
-102.663 50.5152 1015.03 0 0
-33.1794 50.3321 1011.35 0 0
37.7196 52.8358 1061.66 0 0
-137.439 53.8703 1026.09 0 0
-66.1623 52.944 1008.45 0 0
2.81052 54.095 1030.37 0 0
732.291 79.9155 1522.19 0 0
-177.635 58.8413 1065.31 0 0
-99.3042 55.7362 1009.09 0 0
-30.5557 56.1195 1016.03 0 0
40.5476 58.5328 1059.73 0 0
-133.875 59.1444 1020.31 0 0
-63.3926 58.4448 1008.24 0 0
5.63386 59.801 1031.63 0 0
-172.39 63.8017 1051.08 0 0
-96.2582 61.0702 1006.09 0 0
-27.7265 61.5587 1014.13 0 0
-214.493 69.1327 1089.83 0 0
-129.995 64.1839 1011.82 0 0
-60.4906 63.8027 1005.81 0 0
8.49315 65.7458 1036.44 0 0
-167.801 68.8436 1040.44 0 0
-93.1747 66.333 1002.5 0 0
-25.0273 67.2989 1017.1 0 0
-126.714 69.4326 1007.71 0 0
-57.6992 69.2508 1005.08 0 0
11.321 71.3793 1035.97 0 0
-163.136 73.7089 1028.96 0 0
-90.2911 71.6997 1000.91 0 0
-22.2793 72.9643 1018.56 0 0
-210.676 81.8807 1101.02 0 0
-123.639 74.7482 1005.11 0 0
-54.79 74.5252 1002.12 0 0
14.1632 77.0998 1036.73 0 0
-159.471 78.9124 1023.49 0 0
-87.2734 76.9232 997.689 0 0
-19.5035 78.5667 1019.01 0 0
-202.517 85.7201 1073.72 0 0
-120.442 79.9444 1001.37 0 0
-51.9895 79.9093 1000.93 0 0
16.9887 82.7268 1036.22 0 0
-155.698 83.9815 1017.12 0 0
-84.218 82.0575 993.815 0 0
-16.7481 84.2881 1020.83 0 0
-196.717 90.2751 1058.3 0 0
-117.266 85.1004 997.64 0 0
-49.1658 85.2294 999.153 0 0
19.8932 88.7127 1039.99 0 0
-236.32 95.1366 1080.67 0 0
-152.488 89.2902 1014.26 0 0
-81.5724 87.5667 994.679 0 0
-13.9665 89.9253 1021.47 0 0
-191.386 94.8524 1044.99 0 0
-114.116 90.2203 993.961 0 0
-46.4863 90.7924 1000.26 0 0
22.9596 95.3271 1050.22 0 0
-149.151 94.4776 1010.43 0 0
-78.9632 93.1339 996.064 0 0
-11.2047 95.7688 1024.24 0 0
-187.304 99.9118 1038.2 0 0
-111.12 95.4139 991.463 0 0
-43.8165 96.4022 1001.73 0 0
25.7266 100.663 1046 0 0
-145.925 99.6843 1007.23 0 0
-76.1577 98.4721 994.982 0 0
-8.43327 101.709 1027.69 0 0
-182.682 104.566 1028.16 0 0
-108.248 100.684 989.989 0 0
-41.065 101.845 1001.41 0 0
28.7153 106.863 1050.74 0 0
-142.301 104.551 1001.1 0 0
-73.29 103.702 992.976 0 0
-5.63586 107.551 1029.83 0 0
-178.753 109.502 1021.76 0 0
-105.461 106.014 989.223 0 0
-38.4175 107.571 1003.75 0 0
753.916 158.919 1482.88 0 0
-225.892 119.502 1087.34 0 0
-138.977 109.56 996.887 0 0
-70.3329 108.755 989.559 0 0
-2.82535 113.36 1031.46 0 0
761.128 175.879 1600.32 0 0
-174.928 114.412 1015.77 0 0
-102.631 111.286 988.016 0 0
-35.6566 113.004 1003.27 0 0
761.639 167.835 1490.06 0 0
-218.481 122.948 1065.69 0 0
-135.997 114.796 995.026 0 0
-67.7208 114.322 990.917 0 0
-0.00594313 119.124 1032.54 0 0
-171.408 119.448 1011.39 0 0
-99.7019 116.42 985.755 0 0
-33.0116 118.84 1006.24 0 0
-212.741 127.086 1051.72 0 0
-133.108 120.082 993.758 0 0
-64.9932 119.704 990.628 0 0
2.82896 125.323 1037.13 0 0
-167.642 124.234 1005.38 0 0
-96.7882 121.534 983.527 0 0
-30.162 123.933 1002.94 0 0
-207.745 131.492 1041.09 0 0
-129.745 124.892 988.829 0 0
-62.2455 125.039 989.994 0 0
5.68033 131.373 1040.14 0 0
762.587 199.08 1576.21 0 0
-164.016 129.04 1000.03 0 0
-94.0351 126.824 982.851 0 0
-27.2794 128.75 997.782 0 0
-203.216 136.057 1032.53 0 0
-126.617 129.862 985.52 0 0
-59.4196 130.189 988.001 0 0
8.51698 136.955 1039.35 0 0
760.885 206.069 1563.85 0 0
-244.027 142.946 1062.77 0 0
-160.556 133.901 995.519 0 0
-91.0502 131.765 979.641 0 0
-24.5509 134.199 997.736 0 0
-198.638 140.46 1023.49 0 0
-123.621 134.92 983.121 0 0
-56.7529 135.671 988.592 0 0
11.3912 143.054 1042.39 0 0
-249.2 153.74 1098.38 0 0
-157.422 138.979 992.918 0 0
-88.1224 136.733 976.869 0 0
-21.8936 140.101 1000.93 0 0
-194.967 145.404 1018.92 0 0
-120.419 139.698 978.939 0 0
-53.9368 140.779 986.509 0 0
14.2801 149.167 1045.29 0 0
778.091 225.678 1581.45 0 0
-241.442 156.659 1077.16 0 0
-153.827 143.585 987.266 0 0
-85.3069 141.832 975.209 0 0
-19.1862 145.79 1002.42 0 0
-191.07 150.101 1013.03 0 0
-117.573 144.84 977.523 0 0
-51.2321 146.149 986.353 0 0
17.1526 155.019 1046.22 0 0
-234.119 159.563 1057.38 0 0
-150.555 148.416 983.516 0 0
-82.5607 147.019 974.258 0 0
-16.512 151.876 1006.44 0 0
565.035 331.856 2199.12 0 0
670.997 311.296 2062.88 0 0
-186.644 154.27 1004.12 0 0
-114.61 149.803 975.042 0 0
-48.6206 151.805 988.073 0 0
19.9555 160.282 1043.25 0 0
510.435 349.886 2277.35 0 0
621.585 326.523 2125.29 0 0
736.516 313.62 2041.3 0 0
-227.512 162.686 1040.38 0 0
-147.201 153.101 979.09 0 0
-79.6508 151.875 971.248 0 0
-13.7371 157.105 1004.7 0 0
449.078 367.016 2347.08 0 0
567.009 341.447 2183.57 0 0
672.284 320.499 2049.61 0 0
-182.903 158.893 998.674 0 0
-111.828 154.972 974.029 0 0
-45.8717 157.042 987.038 0 0
22.9255 166.846 1048.66 0 0
507.561 355.955 2237.24 0 0
625.362 337.047 2118.4 0 0
739.891 323.815 2035.24 0 0
-223.03 167.146 1032.8 0 0
-143.974 157.85 975.36 0 0
-76.8996 156.988 970.033 0 0
-11.02 163.029 1007.36 0 0
437.286 364.663 2253.26 0 0
569.895 351.483 2171.83 0 0
676.2 330.879 2044.51 0 0
-179.299 163.555 993.827 0 0
-108.782 159.734 970.608 0 0
-43.1179 162.228 985.763 0 0
26.0004 173.974 1057.14 0 0
501.478 359.442 2184.11 0 0
628.699 347.273 2110.17 0 0
747.205 335.728 2040.02 0 0
-218.277 171.278 1023.75 0 0
-140.761 162.551 971.585 0 0
-74.4191 162.665 972.267 0 0
-8.28408 168.896 1009.51 0 0
287.963 375.022 2241.56 0 0
454.278 386.191 2308.31 0 0
571.499 360.622 2155.48 0 0
679.292 340.803 2037.02 0 0
-175.84 168.278 989.651 0 0
-106.03 164.886 969.704 0 0
-40.347 167.3 983.899 0 0
28.9944 180.403 1060.96 0 0
394.176 408.689 2403.51 0 0
521.153 381.413 2243.1 0 0
632.24 357.549 2102.76 0 0
753.581 347.249 2042.18 0 0
-213.772 175.474 1015.64 0 0
-137.877 167.585 969.983 0 0
-71.7584 167.973 972.226 0 0
-5.53895 174.866 1012.12 0 0
327.571 431.368 2496.75 0 0
463.272 401.134 2321.76 0 0
577.268 372.327 2155.03 0 0
683.884 351.438 2034.12 0 0
-172.684 173.236 987.071 0 0
-103.221 169.926 968.215 0 0
-37.5871 172.356 982.058 0 0
252.196 449.824 2563.03 0 0
400.498 421.567 2402.03 0 0
526.804 393.316 2241.06 0 0
636.508 368.188 2097.88 0 0
760.277 358.939 2045.18 0 0
788.804 272.297 1551.5 0 0
-210.022 180.191 1010.95 0 0
-134.922 172.499 967.801 0 0
-69.0484 173.156 971.487 0 0
-2.77711 180.706 1013.84 0 0
333.141 443.347 2487.38 0 0
468.81 413.115 2317.77 0 0
580.681 382.476 2145.87 0 0
686.176 360.839 2024.48 0 0
769.735 288.463 1618.41 0 0
-169.003 177.6 981.368 0 0
-100.396 174.908 966.495 0 0
-34.9161 177.793 982.435 0 0
260.749 466.604 2578.33 0 0
404.821 432.303 2388.79 0 0
529.939 403.292 2228.48 0 0
639.159 377.835 2087.81 0 0
766.174 370.268 2046 0 0
-206.027 184.614 1004.95 0 0
-131.876 177.251 964.868 0 0
-66.3231 178.279 970.465 0 0
339.763 456.706 2486.08 0 0
472.488 423.404 2304.8 0 0
586.108 393.913 2144.27 0 0
688.491 370.176 2015.06 0 0
763.446 293.196 1596.02 0 0
-165.748 182.335 977.988 0 0
-97.7652 180.213 966.607 0 0
-32.1687 182.812 980.545 0 0
266.209 477.85 2563.04 0 0
410.092 444 2381.48 0 0
534.581 414.351 2222.45 0 0
641.843 387.424 2078.02 0 0
772.67 381.9 2048.39 0 0
-202.699 189.564 1002.07 0 0
-129.028 182.229 963.299 0 0
-63.5024 183.1 967.904 0 0
187.404 498.873 2637.14 0 0
344.922 468.077 2474.35 0 0
477.681 434.996 2299.47 0 0
591.282 405.165 2141.78 0 0
691.991 380.089 2009.23 0 0
-162.613 187.15 975.221 0 0
-94.9141 185.09 964.483 0 0
-29.5261 188.412 981.797 0 0
272.498 490.571 2556.31 0 0
415.227 455.512 2373.62 0 0
537.537 424.041 2209.64 0 0
645.97 397.828 2073.04 0 0
779.011 393.473 2050.35 0 0
-198.966 194.073 997.091 0 0
-126.173 187.167 961.61 0 0
-60.7701 188.124 966.528 0 0
195.702 516.163 2651.9 0 0
350.393 479.834 2465.25 0 0
481.714 445.484 2288.77 0 0
595.287 415.582 2135.14 0 0
695.332 389.868 2003.03 0 0
-248.416 211.022 1069.16 0 0
-159.408 191.833 971.933 0 0
-91.8721 189.526 960.244 0 0
-26.8451 193.799 981.895 0 0
278.648 503.034 2548.65 0 0
420.962 467.651 2369.38 0 0
542.732 435.443 2206.2 0 0
648.935 407.464 2064.44 0 0
788.154 406.507 2059.59 0 0
-195.448 198.718 993.065 0 0
-123.377 192.163 960.307 0 0
-57.8216 192.388 961.429 0 0
202.2 528.698 2642.09 0 0
355.032 490.412 2450.76 0 0
486.489 456.606 2281.82 0 0
599.346 425.991 2128.83 0 0
701.024 400.942 2003.65 0 0
-241.237 213.107 1050.62 0 0
-156.666 197.038 971.4 0 0
-89.0652 194.377 958.283 0 0
-24.254 199.932 985.669 0 0
283.846 513.765 2532.87 0 0
426.426 479.466 2363.77 0 0
546.704 445.825 2197.92 0 0
652.543 417.448 2058.03 0 0
795.116 418.467 2063.05 0 0
-191.858 203.22 988.554 0 0
-120.375 196.796 957.304 0 0
-55.2453 197.829 962.331 0 0
208.143 539.824 2625.95 0 0
360.369 501.912 2441.53 0 0
492.345 468.718 2280.06 0 0
602.057 435.382 2117.9 0 0
705.449 411.282 2000.67 0 0
893.629 436.415 2122.92 0 0
-235.656 216.363 1038.68 0 0
-153.286 201.397 966.831 0 0
-86.3163 199.317 956.848 0 0
-21.5385 205.118 984.696 0 0
290.861 527.779 2533.67 0 0
431.012 490.254 2353.53 0 0
550.198 455.759 2187.93 0 0
654.721 426.454 2047.25 0 0
798.955 428.78 2058.41 0 0
-188.408 207.799 984.645 0 0
-117.541 201.656 955.539 0 0
-52.6963 203.404 963.821 0 0
208.566 536.794 2543.57 0 0
366.257 514.156 2436.3 0 0
497.091 479.748 2273.26 0 0
606.266 445.798 2112.39 0 0
711.796 422.741 2003.14 0 0
903.729 450.161 2133.07 0 0
-231.411 220.7 1032.41 0 0
-150.303 206.215 964.645 0 0
-83.4507 203.937 953.989 0 0
-18.885 210.927 986.686 0 0
295.015 536.588 2510.08 0 0
435.751 501.173 2344.42 0 0
554.705 466.481 2182.13 0 0
658.788 436.632 2042.51 0 0
805.067 440.298 2059.65 0 0
-185.244 212.64 982.141 0 0
-114.971 206.956 955.89 0 0
-50.1115 208.881 964.779 0 0
219.273 560.295 2587.89 0 0
371.496 525.466 2427.02 0 0
499.83 488.778 2257.57 0 0
609.6 455.523 2103.97 0 0
720.688 435.758 2012.68 0 0
909.674 461.88 2133.33 0 0
-226.466 224.242 1022.82 0 0
-147.356 211.045 962.62 0 0
-81.0257 209.625 956.144 0 0
-16.2611 217.299 991.149 0 0
301.542 549.701 2507.3 0 0
441.823 513.599 2342.63 0 0
558.064 476.186 2171.99 0 0
661.635 445.954 2034.09 0 0
810.985 451.718 2060.38 0 0
-181.649 216.921 977.241 0 0
-112.306 212.082 955.44 0 0
-47.4585 214.083 964.456 0 0
227.485 577.329 2600.89 0 0
376.431 536.314 2416.12 0 0
503.845 498.984 2247.95 0 0
613.887 465.914 2098.96 0 0
725.487 446.329 2010.73 0 0
909.888 470.637 2120.24 0 0
-221.981 228.099 1015.1 0 0
-144.645 216.188 962.088 0 0
-78.3646 214.722 955.565 0 0
-13.5747 223.092 992.816 0 0
307.629 562.009 2501.08 0 0
447.082 525.062 2336.65 0 0
562.604 486.852 2166.61 0 0
666.177 456.377 2030.99 0 0
821.138 465.545 2071.79 0 0
-178.397 221.544 974.074 0 0
-109.455 216.831 953.356 0 0
-44.8962 219.718 966.048 0 0
233.698 589.289 2590.96 0 0
382.287 548.449 2411.4 0 0
507.734 509.012 2238.01 0 0
617.385 475.663 2091.38 0 0
731.441 457.608 2011.99 0 0
918.016 483.457 2125.65 0 0
-218.845 233.263 1013.42 0 0
-141.536 220.7 958.841 0 0
-75.7588 219.964 955.643 0 0
-10.908 229.51 997.119 0 0
314.275 575.332 2499.56 0 0
450.738 534.596 2322.58 0 0
567.705 497.975 2163.48 0 0
669.128 465.67 2023.13 0 0
825.723 476.25 2069.09 0 0
-175.464 226.519 972.573 0 0
-106.964 222.284 954.388 0 0
-42.3241 225.364 967.613 0 0
240.737 603.344 2590.49 0 0
387.238 559.263 2401.23 0 0
511.115 518.471 2226.09 0 0
621.145 485.567 2084.81 0 0
735.475 467.675 2007.99 0 0
927.411 496.999 2133.89 0 0
-214.274 236.812 1004.97 0 0
-138.951 226.001 959.094 0 0
-73.3066 225.681 957.733 0 0
-8.21063 235.772 1000.56 0 0
319.529 586.101 2487.27 0 0
455.175 545.005 2312.87 0 0
571.172 507.629 2154.25 0 0
671.303 474.359 2013.06 0 0
831.897 487.865 2070.38 0 0
-172.225 231.057 969.304 0 0
-104.262 227.297 953.532 0 0
-39.7472 231.049 969.273 0 0
246.282 613.678 2574.44 0 0
391.468 568.998 2387 0 0
516.266 529.682 2222.07 0 0
623.882 494.616 2074.96 0 0
741.022 478.69 2008.15 0 0
933.287 508.688 2133.99 0 0
-211.466 242.237 1004.68 0 0
-136.29 231.177 958.815 0 0
-70.6731 230.865 957.521 0 0
-5.5144 242.948 1007.64 0 0
324.794 596.882 2475.59 0 0
459.223 554.901 2301.47 0 0
573.461 516.166 2140.81 0 0
676.598 485.216 2012.45 0 0
837.588 499.203 2070.46 0 0
-168.975 235.519 965.871 0 0
-101.605 232.395 953.061 0 0
-37.1687 236.8 971.126 0 0
252.12 624.782 2562.25 0 0
396.435 579.769 2377.66 0 0
521.018 540.459 2216.44 0 0
626.285 503.333 2064.19 0 0
751.443 492.903 2021.42 0 0
-207.83 246.673 1000.4 0 0
-133.362 235.875 956.609 0 0
-68.1218 236.329 958.45 0 0
-2.77503 249.8 1013.08 0 0
330.122 607.766 2464.84 0 0
464.398 566.123 2295.95 0 0
577.76 526.455 2135.08 0 0
677.86 493.134 1999.94 0 0
844.357 511.193 2073.18 0 0
-166.475 241.002 966.685 0 0
-99.0114 237.632 953.168 0 0
-34.6039 242.738 973.65 0 0
258.254 636.646 2553.66 0 0
402.428 592.022 2374.67 0 0
525.6 551.029 2210.24 0 0
631.128 513.966 2061.58 0 0
755.919 503.256 2018.61 0 0
-204.151 250.982 995.797 0 0
-130.533 240.711 955.048 0 0
-65.6227 242.014 960.217 0 0
-0.00587101 257.085 1020.01 0 0
336.247 620.112 2460.36 0 0
468.451 575.94 2285.11 0 0
581.974 536.631 2129.14 0 0
680.836 502.23 1992.65 0 0
851.008 523.132 2075.58 0 0
-163.362 245.58 963.911 0 0
-96.1927 242.305 951.059 0 0
-32.0239 248.694 976.132 0 0
264.875 649.723 2550.19 0 0
406.993 602.155 2363.48 0 0
531.467 562.927 2209.51 0 0
634.658 523.501 2054.76 0 0
763.947 515.987 2025.27 0 0
-200.345 255.045 990.438 0 0
-127.878 245.845 954.71 0 0
-63.0735 247.56 961.367 0 0
340.91 629.752 2445.56 0 0
472.359 585.535 2273.85 0 0
586.037 546.632 2122.78 0 0
683.178 510.802 1983.64 0 0
859.759 536.399 2083.04 0 0
-234.349 259.431 996.886 0 0
-160.383 250.312 961.844 0 0
-93.7689 247.97 952.846 0 0
-29.41 254.5 977.939 0 0
269.002 656.724 2523.52 0 0
411.567 612.27 2352.7 0 0
534.306 571.582 2196.35 0 0
639.355 533.966 2051.81 0 0
770.933 528.051 2029.08 0 0
-197.356 260.089 989.026 0 0
-125.479 251.489 956.322 0 0
-60.4376 252.781 961.239 0 0
345.901 639.989 2433.65 0 0
474.471 592.839 2254.36 0 0
590.938 557.387 2119.54 0 0
687.843 521.073 1981.46 0 0
865.001 547.501 2081.95 0 0
-235.081 268.834 1011.77 0 0
-158.327 256.498 965.337 0 0
-91.3939 253.816 955.245 0 0
-26.8045 260.503 980.409 0 0
276.118 671.05 2525.52 0 0
417.223 623.973 2348.34 0 0
537.664 580.731 2185.6 0 0
641.852 542.552 2041.91 0 0
776.69 539.29 2029.63 0 0
-194.125 264.775 986.341 0 0
-123.141 257.292 958.466 0 0
-57.7909 257.951 960.919 0 0
198.936 697.797 2599.44 0 0
351.269 650.912 2424.78 0 0
480.282 604.72 2252.71 0 0
593.563 565.952 2108.29 0 0
691.241 530.357 1975.69 0 0
871.559 559.439 2084.03 0 0
-235.566 278.205 1025.92 0 0
-155.539 261.525 964.414 0 0
-88.783 259.039 955.248 0 0
-24.2726 267.494 986.425 0 0
282.719 684.125 2522.82 0 0
422.187 634.623 2340.27 0 0
540.755 589.537 2174.01 0 0
645.091 551.712 2034.52 0 0
781.384 549.785 2027.42 0 0
-189.982 268.126 978.89 0 0
-120.171 261.769 955.679 0 0
-55.4437 264.537 965.786 0 0
205.879 711.448 2597.39 0 0
357.498 663.428 2422.08 0 0
485.35 615.654 2247.66 0 0
596.096 574.366 2096.93 0 0
697.412 541.756 1977.87 0 0
881.774 573.773 2094.76 0 0
-152.065 265.336 959.131 0 0
-86.3986 264.956 957.76 0 0
-21.6107 273.322 988 0 0
287.803 693.55 2507.03 0 0
426.819 644.751 2330.63 0 0
547.257 602.037 2176.23 0 0
650.46 562.668 2033.92 0 0
788.387 561.91 2031.18 0 0
-187.135 273.228 977.995 0 0
-117.482 266.819 955.055 0 0
-52.8434 270.019 966.511 0 0
212.182 722.933 2587.68 0 0
363.863 676.194 2420.38 0 0
489.893 625.896 2240.34 0 0
598.82 582.902 2086.45 0 0
702.517 552.333 1977.03 0 0
-229.131 288.381 1022.23 0 0
-149.622 270.903 960.277 0 0
-83.9934 270.879 960.192 0 0
-18.9805 279.76 991.676 0 0
291.849 700.518 2483.15 0 0
431.191 654.46 2319.89 0 0
551.129 611.629 2168.06 0 0
655.083 572.968 2031.02 0 0
796.604 574.938 2038 0 0
-183.612 277.29 973.487 0 0
-115.299 273.053 958.612 0 0
-50.3611 276.178 969.584 0 0
218.967 736.11 2584.27 0 0
368.357 685.478 2406.52 0 0
494.576 636.291 2233.84 0 0
604.3 594.089 2085.68 0 0
707.366 562.699 1975.47 0 0
684.797 394.262 1384.14 0 0
-230.967 299.983 1043.15 0 0
-147.205 276.543 961.636 0 0
-81.4869 276.529 961.587 0 0
-16.3776 287.072 998.247 0 0
298.585 713.969 2482.72 0 0
435.717 664.374 2310.26 0 0
555.063 621.252 2160.31 0 0
656.994 580.852 2019.82 0 0
801.18 585.353 2035.47 0 0
-180.923 282.569 973.339 0 0
-112.238 277.207 954.868 0 0
-47.8256 282.156 971.916 0 0
371.462 692.162 2384.22 0 0
499.242 646.637 2227.41 0 0
608.177 603.68 2079.44 0 0
715.243 575.491 1982.34 0 0
901.59 609.913 2100.91 0 0
-227.127 304.361 1038.62 0 0
-144.613 281.871 961.876 0 0
-78.9873 282.246 963.157 0 0
-13.7261 294.182 1003.89 0 0
438.861 672.147 2293.68 0 0
557.407 629.043 2146.59 0 0
659.373 589.088 2010.25 0 0
808.448 597.74 2039.77 0 0
-178.338 288.011 973.749 0 0
-109.716 282.654 955.634 0 0
-45.2893 288.236 974.506 0 0
376.954 703.283 2377.76 0 0
504.818 658.146 2225.15 0 0
612.203 613.387 2073.82 0 0
721.481 586.995 1984.59 0 0
-222.184 307.131 1028.88 0 0
-142.187 287.54 963.254 0 0
-76.3126 287.353 962.628 0 0
-11.0399 301.25 1009.18 0 0
443.542 682.243 2285.5 0 0
561.255 638.481 2138.9 0 0
664.249 599.519 2008.38 0 0
815.145 609.73 2042.58 0 0
-174.987 292.183 969.926 0 0
-107.24 288.243 956.845 0 0
-42.6646 293.832 975.399 0 0
385.923 720.896 2393.07 0 0
508.113 666.654 2213.01 0 0
616.126 622.96 2067.97 0 0
725.583 596.757 1980.98 0 0
757.268 453.571 1505.67 0 0
-217.514 310.108 1020.17 0 0
-139.488 292.668 962.801 0 0
-74.0785 294.193 967.817 0 0
-8.37899 310.383 1021.08 0 0
450.992 696.595 2291.61 0 0
566.026 648.941 2134.84 0 0
667.072 608.068 2000.38 0 0
-172.679 298.08 971.863 0 0
-104.737 293.788 957.871 0 0
-40.1592 300.367 979.321 0 0
511.737 675.551 2202.57 0 0
616.774 629.159 2051.32 0 0
729.16 606.059 1976 0 0
770.964 467.613 1524.61 0 0
-212.876 312.965 1011.38 0 0
-137 298.244 963.809 0 0
-71.694 300.578 971.352 0 0
-5.7175 323.29 1044.75 0 0
569.872 658.314 2127.42 0 0
670.007 616.672 1992.84 0 0
701.792 459.24 1484.09 0 0
-169.604 302.646 969.471 0 0
-102.56 300.319 962.015 0 0
-37.6138 306.793 982.756 0 0
516.583 686.031 2197.57 0 0
622.532 640.53 2051.82 0 0
739.741 621.212 1989.94 0 0
786.423 482.881 1546.82 0 0
-209.457 317.502 1008.23 0 0
-134.685 304.235 966.1 0 0
-69.1075 306.193 972.318 0 0
-2.93914 337.898 1073 0 0
575.771 670.042 2127.73 0 0
676.686 628.711 1996.48 0 0
-255.715 337.672 1063.05 0 0
-167.409 308.785 972.112 0 0
-100.086 306.053 963.511 0 0
-35.156 314.208 989.184 0 0
625.201 648.696 2042.22 0 0
743.076 630.305 1984.32 0 0
-205.89 321.747 1004.28 0 0
-132.097 309.64 966.487 0 0
-66.7704 313.011 977.01 0 0
-0.00622999 346.769 1082.38 0 0
679.695 637.33 1989.31 0 0
-249.37 338.811 1048.59 0 0
-164.19 313.028 968.797 0 0
-97.9507 312.913 968.441 0 0
-32.6209 321.278 994.331 0 0
630.984 660.071 2042.87 0 0
667.616 484.158 1498.43 0 0
-203.056 327.094 1003.84 0 0
-129.565 315.191 967.307 0 0
-64.0662 318.186 976.498 0 0
2.95093 352.513 1081.85 0 0
638.85 432.705 1327.95 0 0
-238.58 333.468 1014.89 0 0
-161.762 318.757 970.113 0 0
-95.2129 317.905 967.519 0 0
-30.0858 328.711 1000.41 0 0
639.566 674.4 2052.49 0 0
-199.274 330.858 998.634 0 0
-126.923 320.486 967.327 0 0
-61.6652 324.937 980.764 0 0
5.89079 357.378 1078.68 0 0
-242.59 348.769 1044.08 0 0
-158.936 323.707 969.054 0 0
-92.8759 324.268 970.735 0 0
-27.4891 335.865 1005.45 0 0
-196.721 336.62 999.532 0 0
-124.412 326.122 968.359 0 0
-59.176 331.372 983.951 0 0
8.82012 362.487 1076.34 0 0
-233.244 344.878 1015.81 0 0
-156.732 329.94 971.81 0 0
-90.5775 330.872 974.555 0 0
-24.8546 342.933 1010.08 0 0
768.842 499.981 1472.65 0 0
-192.91 340.182 993.975 0 0
-121.828 331.587 968.86 0 0
-56.6512 337.733 986.82 0 0
11.7331 367.458 1073.67 0 0
-233.489 355.026 1029.13 0 0
-154.307 335.756 973.268 0 0
-88.134 337.042 976.998 0 0
-22.3466 352.444 1021.64 0 0
768.925 505.441 1465.14 0 0
-189.894 345.072 992.411 0 0
-119.409 337.532 970.726 0 0
-53.9919 343.371 987.518 0 0
-235.937 368.878 1052.6 0 0
-151.789 341.398 974.185 0 0
-85.7447 343.51 980.214 0 0
-19.887 364.126 1039.04 0 0
766.921 509.459 1453.75 0 0
-857.247 930.758 2635.38 0 0
-186.784 349.754 990.305 0 0
-117.233 344.239 974.69 0 0
-51.5569 350.566 992.605 0 0
708.456 505.737 1431.96 0 0
-230.407 370.367 1040.62 0 0
-149.54 347.687 976.891 0 0
-83.0434 348.777 979.954 0 0
-17.3665 376.74 1058.52 0 0
693.98 534.687 1502.3 0 0
768.977 516.119 1450.13 0 0
-843.485 937.873 2615.05 0 0
-184.357 355.707 991.809 0 0
-114.959 350.759 978.013 0 0
-48.9731 356.936 995.235 0 0
719.738 518.877 1446.77 0 0
-226.011 373.492 1033.52 0 0
-146.909 353.122 977.152 0 0
-80.7321 355.753 984.434 0 0
-14.5511 384.588 1064.23 0 0
681.482 529.986 1466.57 0 0
770.842 522.624 1446.2 0 0
