ply
format ascii 1.0
element vertex 1468
property float x
property float y
property float z
property float u
property float v
end_header
-112.109 -590.38 1242.77 0 0
-152.225 -584.492 1237.5 0 0
-109.649 -588.618 1253.49 0 0
-154.125 -598.231 1281.42 0 0
-105.605 -578.382 1246.2 0 0
-149.511 -586.867 1271.97 0 0
-191.068 -582.885 1270.87 0 0
-102.695 -574.343 1252.24 0 0
-143.543 -570.017 1250.26 0 0
-58.3277 -572.203 1255.06 0 0
-185.375 -569.125 1255.84 0 0
-98.9543 -565.681 1248.24 0 0
-139.042 -558.828 1240.6 0 0
-55.7647 -574.277 1274.89 0 0
-179.231 -553.879 1237.12 0 0
-95.3013 -557.448 1245.09 0 0
-134.751 -548.386 1232.37 0 0
-52.4291 -568.927 1278.53 0 0
-177.209 -551.348 1246.69 0 0
-91.49 -548.196 1239.56 0 0
-131.26 -541.141 1231.22 0 0
-173.865 -544.73 1247.14 0 0
-87.8232 -539.708 1235.64 0 0
-218.487 -550.684 1268.71 0 0
-128.09 -535.231 1233.11 0 0
-168.101 -530.482 1229.91 0 0
-84.3839 -532.563 1234.74 0 0
-211.53 -534.925 1248.12 0 0
-124.123 -525.961 1227.21 0 0
-162.929 -518.002 1216.4 0 0
-81.1586 -526.785 1237.02 0 0
-210.118 -533.176 1260.11 0 0
-120.869 -519.685 1228.23 0 0
-160.465 -514.11 1222.96 0 0
-77.9039 -520.869 1239.03 0 0
-203.053 -517.067 1238.04 0 0
-117.048 -510.944 1223.38 0 0
-157.109 -507.383 1222.86 0 0
-74.5448 -514.287 1239.49 0 0
-201.12 -514.008 1247.04 0 0
-113.84 -504.86 1224.85 0 0
-154.65 -503.576 1229.89 0 0
-71.2527 -508.195 1241.17 0 0
-197.037 -505.461 1242.79 0 0
-110.656 -498.901 1226.66 0 0
-241.501 -509.872 1262.11 0 0
-151.13 -496.331 1228.59 0 0
-68.2478 -504.275 1248.26 0 0
-191.424 -492.96 1228.56 0 0
-107.277 -492.078 1226.37 0 0
-233.287 -492.908 1236.86 0 0
-147.38 -488.318 1225.34 0 0
-65.0569 -499.147 1252.52 0 0
-187.99 -486.047 1228.07 0 0
-103.892 -485.221 1225.98 0 0
-231.064 -488.595 1243.09 0 0
-143.87 -481.083 1223.98 0 0
-62.0003 -495.232 1259.98 0 0
-184.533 -479.073 1227.4 0 0
-100.966 -480.539 1231.16 0 0
-227.433 -481.305 1241.81 0 0
-140.391 -473.941 1222.81 0 0
-59.1587 -493.368 1272.94 0 0
-179.893 -469.013 1218.69 0 0
-97.5554 -473.591 1230.59 0 0
-226.717 -480.19 1256.66 0 0
-136.959 -466.95 1222.01 0 0
-55.9489 -488.766 1279.11 0 0
-270.505 -481.324 1268.71 0 0
-176.541 -462.298 1218.56 0 0
-94.1538 -466.676 1230.1 0 0
-221.623 -469.803 1247.33 0 0
-133.653 -460.389 1222.33 0 0
-52.7949 -484.917 1287.45 0 0
-268.71 -477.36 1276.65 0 0
-173.598 -456.655 1221.28 0 0
-90.9944 -460.979 1232.85 0 0
-217.408 -461.275 1242.72 0 0
-129.916 -452.326 1218.61 0 0
-266.312 -472.317 1281.91 0 0
-169.83 -448.844 1218.2 0 0
-87.9298 -455.822 1237.14 0 0
-212.399 -451.058 1233.36 0 0
-126.95 -446.952 1222.13 0 0
-261.097 -462.279 1273.56 0 0
-166.778 -442.922 1220.23 0 0
-84.486 -448.729 1236.23 0 0
-207.298 -440.639 1223.15 0 0
-123.814 -440.997 1224.15 0 0
-259.863 -459.289 1284.67 0 0
-164.158 -438.159 1225.57 0 0
-81.1687 -442.307 1237.17 0 0
-297.073 -448.338 1263.7 0 0
-203.723 -433.457 1221.76 0 0
-120.701 -435.147 1226.52 0 0
-254.03 -448.169 1273.04 0 0
-160.836 -431.534 1225.78 0 0
-77.9764 -436.605 1240.19 0 0
-294.67 -443.01 1268.23 0 0
-201.099 -428.303 1226.13 0 0
-117.644 -429.52 1229.61 0 0
-249.608 -439.551 1268.25 0 0
-157.609 -425.166 1226.74 0 0
-75.0411 -432.445 1247.75 0 0
-292.178 -437.537 1272.48 0 0
-198.501 -423.207 1230.8 0 0
-114.532 -423.721 1232.29 0 0
-242.64 -426.463 1250.21 0 0
-154.397 -418.843 1227.87 0 0
-72.5242 -430.934 1263.32 0 0
-289.021 -431.059 1273.89 0 0
-193.016 -411.951 1217.42 0 0
-111.002 -416.375 1230.49 0 0
-233.636 -409.829 1221.01 0 0
-151.368 -413.024 1230.53 0 0
-69.9465 -429.402 1279.33 0 0
-285.545 -424.104 1273.92 0 0
-188.509 -402.777 1209.86 0 0
-107.698 -409.875 1231.18 0 0
-323.678 -415.928 1259.7 0 0
-228.743 -400.431 1212.77 0 0
-148.213 -406.87 1232.27 0 0
-67.9987 -432.257 1309.15 0 0
-281.724 -416.639 1272.39 0 0
-184.416 -394.482 1204.72 0 0
-104.563 -404.037 1233.9 0 0
-321.387 -410.513 1264.23 0 0
-224.486 -392.157 1207.7 0 0
-145.139 -400.946 1234.77 0 0
-273.644 -402.907 1251.34 0 0
-181.855 -389.463 1209.59 0 0
-101.5 -398.506 1237.68 0 0
-317.308 -402.811 1261.76 0 0
-220.692 -384.695 1205.01 0 0
-142.347 -395.816 1239.85 0 0
-265.688 -389.418 1230.34 0 0
-180.322 -386.652 1221.6 0 0
-98.0872 -391.621 1237.3 0 0
-308.49 -389.14 1240.17 0 0
-216.695 -376.884 1201.11 0 0
-139.224 -389.783 1242.22 0 0
-261.717 -381.805 1227.49 0 0
-176.107 -378.094 1215.56 0 0
-94.9194 -385.727 1240.1 0 0
-298.628 -374.249 1213.86 0 0
-214.706 -372.563 1208.39 0 0
-136.385 -384.563 1247.32 0 0
-256.198 -371.954 1217.21 0 0
-174.109 -374.295 1224.87 0 0
-92.1861 -381.666 1248.99 0 0
-284.044 -353.589 1167.55 0 0
-210.285 -364.021 1202 0 0
-133.747 -379.934 1254.55 0 0
-320.31 -348.189 1160.2 0 0
-252.727 -365.091 1216.51 0 0
-171.727 -369.68 1231.8 0 0
-91.5475 -386.557 1288.04 0 0
-277.663 -343.262 1154.29 0 0
-207.646 -358.567 1205.76 0 0
-131.22 -375.66 1263.24 0 0
-312.387 -336.725 1142.81 0 0
-246.694 -354.55 1203.31 0 0
-169.691 -365.814 1241.54 0 0
-273.605 -335.844 1150.5 0 0
-206.285 -355.308 1217.17 0 0
-129.103 -372.609 1276.44 0 0
-307.441 -328.53 1136.08 0 0
-240.233 -343.436 1187.63 0 0
-167.363 -361.329 1249.5 0 0
-269.979 -328.969 1148.45 0 0
-202.051 -347.096 1211.74 0 0
-303.244 -321.163 1132 0 0
-237.427 -337.57 1189.83 0 0
-165.019 -356.814 1257.67 0 0
-351.214 -328.197 1168.05 0 0
-266.533 -322.319 1147.13 0 0
-198.595 -340.225 1210.86 0 0
-298.878 -313.64 1127.21 0 0
-233.727 -330.432 1187.56 0 0
-161.971 -350.784 1260.7 0 0
-336.024 -310.718 1127.79 0 0
-263.851 -316.592 1149.11 0 0
-194.19 -331.735 1204.07 0 0
-296.003 -307.692 1128 0 0
-229.939 -323.178 1184.77 0 0
-159.582 -346.184 1269.11 0 0
-331.239 -302.995 1122.02 0 0
-261.221 -310.919 1151.36 0 0
-189.933 -323.506 1197.97 0 0
-293.176 -301.79 1128.98 0 0
-226.562 -316.508 1184.04 0 0
-156.216 -339.469 1269.94 0 0
-326.204 -295.082 1115.29 0 0
-258.258 -304.841 1152.18 0 0
-187.259 -317.979 1201.83 0 0
-289.449 -294.964 1126.49 0 0
-221.635 -307.688 1175.08 0 0
-153.027 -333.141 1272.29 0 0
-322.685 -288.563 1113.67 0 0
-255.568 -299.08 1154.26 0 0
-183.168 -310.043 1196.57 0 0
-363.303 -288.769 1126.34 0 0
-286.707 -289.145 1127.81 0 0
-218.444 -301.293 1175.19 0 0
-147.418 -321.538 1254.16 0 0
-318.597 -281.553 1110.03 0 0
-252.199 -292.522 1153.28 0 0
-178.639 -301.379 1188.2 0 0
-355.045 -278.548 1110.15 0 0
-284.523 -283.877 1131.39 0 0
-214.648 -294.069 1172.01 0 0
-144.71 -316.255 1260.43 0 0
-315.317 -275.27 1109.17 0 0
-248.599 -285.703 1151.21 0 0
-177.015 -297.614 1199.2 0 0
-351.376 -271.988 1108.15 0 0
-281.961 -278.216 1133.52 0 0
-211.481 -287.712 1172.21 0 0
-142.97 -313.099 1275.64 0 0
-311.974 -268.938 1108.06 0 0
-245.615 -279.594 1151.97 0 0
-174.804 -292.846 1206.57 0 0
-346.457 -264.487 1102.14 0 0
-279.426 -272.568 1135.81 0 0
-208.421 -281.498 1173.02 0 0
-140.757 -308.92 1287.29 0 0
-309.05 -262.97 1108.44 0 0
-242.709 -273.57 1153.12 0 0
-172.311 -287.592 1212.23 0 0
-342.225 -257.544 1098.22 0 0
-277.146 -267.153 1139.2 0 0
-204.162 -273.674 1167 0 0
-306.542 -257.348 1110.33 0 0
-239.515 -267.22 1152.92 0 0
-168.737 -280.533 1210.36 0 0
-338.595 -251.074 1096.19 0 0
-274.914 -261.766 1142.87 0 0
-200.079 -266.107 1161.82 0 0
-382.481 -253.33 1119.4 0 0
-304.077 -251.75 1112.41 0 0
-236.44 -261.001 1153.29 0 0
-165.383 -273.84 1210.03 0 0
-336.829 -245.981 1100.21 0 0
-272.345 -256.039 1145.2 0 0
-196.373 -259.055 1158.69 0 0
-372.286 -242.562 1098.35 0 0
-300.915 -245.57 1111.97 0 0
-233.147 -254.543 1152.6 0 0
-161.087 -265.595 1202.64 0 0
-332.902 -239.304 1097.18 0 0
-270.648 -251.109 1151.3 0 0
-191.986 -251.126 1151.38 0 0
-368.227 -235.88 1095.2 0 0
-298.886 -240.303 1115.74 0 0
-229.75 -247.976 1151.36 0 0
-157.802 -259.025 1202.67 0 0
-330.522 -233.744 1099.24 0 0
-268.166 -245.424 1154.16 0 0
-187.781 -243.46 1144.92 0 0
-362.2 -227.984 1086.11 0 0
-295.547 -233.974 1114.65 0 0
-226.687 -241.771 1151.79 0 0
-153.914 -251.468 1197.99 0 0
-327.173 -227.495 1098.08 0 0
-264.508 -238.659 1151.97 0 0
-184.297 -236.745 1142.72 0 0
-358.776 -221.765 1084.73 0 0
-294.292 -229.277 1121.47 0 0
-223.321 -235.245 1150.67 0 0
-149.994 -243.869 1192.85 0 0
-323.72 -221.184 1096.55 0 0
-260.846 -231.906 1149.71 0 0
-180.701 -229.897 1139.75 0 0
-354.989 -215.336 1082.22 0 0
-291.988 -223.729 1124.41 0 0
-219.709 -228.469 1148.23 0 0
-400.096 -217.604 1108.86 0 0
-320.212 -214.847 1094.81 0 0
-257.885 -225.779 1150.52 0 0
-177.686 -223.792 1140.39 0 0
-351.766 -209.262 1081.41 0 0
-290.811 -219.011 1131.79 0 0
-215.97 -221.576 1145.05 0 0
-141.696 -227.968 1178.08 0 0
-390.985 -208.302 1091.88 0 0
-317.633 -209.134 1096.23 0 0
-254.58 -219.352 1149.79 0 0
-174.008 -216.859 1136.73 0 0
-346.772 -202.162 1075.09 0 0
-289.386 -214.058 1138.35 0 0
-212.331 -214.801 1142.31 0 0
-123.882 -198.182 1053.93 0 0
-386.118 -201.352 1086.58 0 0
-314.692 -203.176 1096.43 0 0
-250.963 -212.665 1147.63 0 0
-170.702 -210.4 1135.41 0 0
-346.065 -197.558 1082.07 0 0
-289.741 -210.351 1152.14 0 0
-207.33 -206.683 1132.05 0 0
-116.537 -185.321 1015.04 0 0
-378.916 -193.254 1074.58 0 0
-314.071 -198.686 1104.78 0 0
-247.8 -206.369 1147.51 0 0
-167.077 -203.557 1131.87 0 0
-341.117 -190.532 1075.8 0 0
-290.534 -206.859 1167.99 0 0
-203.664 -199.934 1128.88 0 0
-113.38 -179.168 1011.63 0 0
-373.89 -186.338 1068.61 0 0
-311.447 -192.891 1106.19 0 0
-243.837 -199.42 1143.63 0 0
-163.471 -196.754 1128.34 0 0
-337.058 -184.04 1072.24 0 0
-287.781 -200.781 1169.77 0 0
-199.844 -193.053 1124.75 0 0
-368.63 -179.358 1061.87 0 0
-309.528 -187.513 1110.15 0 0
-240.071 -192.654 1140.59 0 0
-159.465 -189.49 1121.85 0 0
-410.511 -179.539 1080.43 0 0
-334.916 -178.598 1074.77 0 0
-283.734 -193.806 1166.28 0 0
-196.238 -186.399 1121.71 0 0
-364.763 -173.095 1059.07 0 0
-308.441 -182.597 1117.21 0 0
-235.308 -185.124 1132.67 0 0
-155.609 -182.431 1116.19 0 0
-402.336 -171.408 1066.58 0 0
-331.849 -172.656 1074.35 0 0
-279.379 -186.65 1161.43 0 0
-192.481 -179.622 1117.7 0 0
-111.07 -171.838 1069.26 0 0
-360.622 -166.729 1055.42 0 0
-307.339 -177.617 1124.35 0 0
-230.722 -177.784 1125.4 0 0
-146.547 -169.381 1072.21 0 0
-395.278 -163.859 1055.52 0 0
-330.744 -167.711 1080.33 0 0
-275.04 -179.541 1156.53 0 0
-189.289 -173.386 1116.89 0 0
-359.488 -161.747 1060.59 0 0
-308.687 -173.963 1140.69 0 0
-227.423 -171.464 1124.3 0 0
-136.156 -155.026 1016.52 0 0
-390.466 -157.313 1050.34 0 0
-327.807 -161.813 1080.39 0 0
-270.284 -172.202 1149.75 0 0
-185.785 -166.876 1114.19 0 0
-353.551 -154.62 1051.55 0 0
-312.748 -171.667 1167.48 0 0
-223.7 -164.838 1121.04 0 0
-131.695 -147.583 1003.69 0 0
-384.436 -150.335 1041.78 0 0
-327.123 -156.996 1087.93 0 0
-264.714 -164.409 1139.3 0 0
-181.867 -160.017 1108.87 0 0
-350.871 -148.954 1052.14 0 0
-310.471 -165.773 1170.93 0 0
-219.84 -158.137 1117 0 0
-128.643 -141.756 1001.29 0 0
-380.887 -144.374 1039.86 0 0
-325.898 -151.863 1093.8 0 0
-259.982 -157.202 1132.26 0 0
-178.556 -153.714 1107.13 0 0
-106.165 -158.592 1142.27 0 0
-425.851 -145.234 1067.06 0 0
-346.984 -142.786 1049.08 0 0
-305 -158.194 1162.28 0 0
-216.04 -151.507 1113.15 0 0
-126.145 -136.54 1003.19 0 0
-377.534 -138.502 1038.46 0 0
-322.055 -145.498 1090.91 0 0
-255.812 -150.38 1127.52 0 0
-166.502 -140.067 1050.19 0 0
-100.086 -147.975 1109.49 0 0
-416.204 -137.182 1050.08 0 0
-338.449 -134.794 1031.8 0 0
-296.309 -149.066 1141.05 0 0
-207.333 -141.554 1083.55 0 0
-124.312 -132.022 1010.59 0 0
-371.517 -131.698 1029.65 0 0
-308.42 -134.875 1054.49 0 0
-241.448 -137.778 1077.18 0 0
-158.245 -129.904 1015.62 0 0
-95.4416 -139.554 1091.07 0 0
-409.055 -130.081 1039.21 0 0
-331.568 -127.591 1019.32 0 0
-271.649 -132.334 1057.21 0 0
-193.263 -128.259 1024.66 0 0
-123.727 -128.763 1028.68 0 0
-365.06 -124.824 1019.48 0 0
-296.831 -125.431 1024.44 0 0
-227.057 -125.56 1025.49 0 0
-153.934 -123.124 1005.59 0 0
-92.787 -134.063 1094.93 0 0
-406.439 -124.469 1039.79 0 0
-329.025 -122.108 1020.07 0 0
-259.133 -122.021 1019.35 0 0
-187.268 -120.6 1007.47 0 0
-123.905 -126.185 1054.12 0 0
-361.869 -119.118 1018.34 0 0
-292.012 -119.009 1017.41 0 0
-221.482 -118.471 1012.81 0 0
-150.803 -117.329 1003.05 0 0
-400.466 -117.863 1031.72 0 0
-325.361 -116.219 1017.33 0 0
-253.965 -115.367 1009.87 0 0
-184.375 -115.005 1006.71 0 0
-121.695 -121.09 1059.97 0 0
-359.211 -113.59 1018.7 0 0
-288.409 -113.124 1014.51 0 0
-218.531 -112.84 1011.97 0 0
-148.742 -112.36 1007.66 0 0
-397.51 -112.184 1031.37 0 0
-320.668 -110.001 1011.3 0 0
-250.717 -109.633 1007.92 0 0
-181.512 -109.435 1006.09 0 0
-120.308 -116.761 1073.44 0 0
-355.771 -107.822 1016.82 0 0
-284.256 -107.058 1009.61 0 0
-215.617 -107.234 1011.28 0 0
-148.361 -108.588 1024.04 0 0
-393.41 -106.2 1028.02 0 0
-316.542 -104.025 1006.97 0 0
-248.271 -104.253 1009.17 0 0
-178.773 -103.942 1006.16 0 0
-123.141 -116.341 1126.19 0 0
-352.442 -102.104 1015.24 0 0
-281.476 -101.531 1009.54 0 0
-212.45 -101.513 1009.36 0 0
-149.807 -105.993 1053.91 0 0
-391.4 -100.786 1030.13 0 0
-314.1 -98.6179 1007.97 0 0
-245.837 -98.8662 1010.51 0 0
-177.448 -99.2378 1014.3 0 0
-123.627 -113.455 1159.62 0 0
-350.3 -96.7291 1017.08 0 0
-279.224 -96.1872 1011.38 0 0
-210.211 -96.2329 1011.86 0 0
-152.151 -103.796 1091.38 0 0
-386.53 -94.6515 1024.68 0 0
-312.289 -93.3899 1011.03 0 0
-243.131 -93.3632 1010.74 0 0
-178.58 -95.787 1036.98 0 0
-120.46 -107.118 1159.65 0 0
-347.872 -91.2611 1018.11 0 0
-276.94 -90.8155 1013.14 0 0
-207.925 -90.9113 1014.21 0 0
-154.782 -101.512 1132.47 0 0
-383.128 -88.9101 1023.08 0 0
-309.521 -87.8615 1011.01 0 0
-240.413 -87.8541 1010.93 0 0
-185.135 -94.9329 1092.38 0 0
-117.415 -100.886 1160.88 0 0
-345.963 -85.9123 1020.69 0 0
-273.686 -85.1262 1011.35 0 0
-208.144 -86.6114 1028.99 0 0
-152.566 -95.8734 1139.03 0 0
-381.228 -83.5134 1025.49 0 0
-307.67 -82.5791 1014.02 0 0
-238.547 -82.6383 1014.74 0 0
-186.422 -91.0479 1118.01 0 0
-425.024 -82.6867 1050.6 0 0
-343.444 -80.3959 1021.49 0 0
-271.586 -79.7925 1013.83 0 0
-210.952 -83.203 1057.16 0 0
-149.702 -89.7963 1140.93 0 0
-379.242 -78.0754 1027.7 0 0
-305.501 -77.188 1016.02 0 0
-238.766 -78.0696 1027.63 0 0
-185.078 -85.7289 1128.45 0 0
-420.755 -76.6885 1047.12 0 0
-342.424 -75.2007 1026.81 0 0
-270.538 -74.726 1020.33 0 0
-220.605 -82.0908 1120.89 0 0
-146.7 -83.6252 1141.84 0 0
-378.338 -72.8238 1032.9 0 0
-303.865 -71.9037 1019.85 0 0
-240.923 -73.9766 1049.25 0 0
-182.581 -79.8167 1132.09 0 0
-416.67 -70.7564 1044.06 0 0
-340.537 -69.7756 1029.59 0 0
-270.738 -69.9199 1031.72 0 0
-220.042 -76.8365 1133.77 0 0
-144.304 -77.7739 1147.61 0 0
-378.018 -67.625 1039.79 0 0
-302.181 -66.5714 1023.59 0 0
-252.341 -72.3356 1112.22 0 0
-179.886 -73.7915 1134.61 0 0
-413.478 -64.9955 1043.21 0 0
-339.388 -64.4634 1034.67 0 0
-273.488 -65.616 1053.16 0 0
-217.991 -70.9795 1139.25 0 0
-140.632 -71.2289 1143.25 0 0
-378.575 -62.5018 1049.21 0 0
-303.362 -61.786 1037.2 0 0
-256.146 -68.0745 1142.76 0 0
-176.72 -67.5639 1134.19 0 0
-414.071 -59.7898 1051.96 0 0
-338.506 -59.147 1040.65 0 0
-287.522 -63.5996 1118.99 0 0
-213.498 -64.3359 1131.94 0 0
-138.085 -65.2522 1148.06 0 0
-380.298 -57.4594 1062.03 0 0
-305.553 -57.0543 1054.54 0 0
-252.83 -61.78 1141.89 0 0
-174.113 -61.5377 1137.41 0 0
-340.308 -54.198 1055.05 0 0
-295.839 -59.7811 1163.74 0 0
-210.771 -58.2492 1133.92 0 0
-135.018 -59.0067 1148.66 0 0
-389.098 -53.2553 1094.97 0 0
-312.165 -52.8982 1087.62 0 0
-248.947 -55.3681 1138.41 0 0
-170.869 -55.2763 1136.52 0 0
-95.381 -56.5671 1163.06 0 0
-293.7 -53.6092 1167.88 0 0
-207.814 -52.0858 1134.69 0 0
-132.237 -52.8707 1151.79 0 0
-320.47 -48.6649 1127.3 0 0
-246.408 -49.259 1141.06 0 0
-168.211 -49.1942 1139.56 0 0
-92.2214 -50.2195 1163.31 0 0
-289.187 -47.01 1162.57 0 0
-205.267 -46.0069 1137.77 0 0
-128.726 -46.4431 1148.55 0 0
-53.247 -49.2243 1217.33 0 0
-243.411 -43.0426 1141.63 0 0
-165.598 -43.095 1143.02 0 0
-89.54 -44.1054 1169.82 0 0
-283.288 -40.2675 1151.51 0 0
-203.477 -40.0467 1145.19 0 0
-126.415 -40.4293 1156.14 0 0
-321.971 -37.2253 1154.78 0 0
-239.95 -36.7493 1140.01 0 0
-162.195 -36.7832 1141.06 0 0
-86.1477 -37.6251 1167.18 0 0
-280.198 -33.9793 1151.74 0 0
-199.668 -33.6717 1141.32 0 0
-122.801 -33.9831 1151.87 0 0
-325.7 -31.58 1179.72 0 0
-236.311 -30.4497 1137.5 0 0
-159.015 -30.5333 1140.62 0 0
-83.1891 -31.3316 1170.44 0 0
-276.494 -27.6274 1149.44 0 0
-196.326 -27.4012 1140.02 0 0
-119.563 -27.6654 1151.02 0 0
-325.866 -25.3949 1192.13 0 0
-233.492 -24.2613 1138.91 0 0
-155.218 -24.1918 1135.65 0 0
-80.1282 -24.9761 1172.47 0 0
-271.845 -21.2259 1143.1 0 0
-193.542 -21.2052 1141.98 0 0
-116.189 -21.331 1148.76 0 0
-321.747 -18.8273 1188.94 0 0
-229.683 -17.9806 1135.47 0 0
-152.319 -18.0077 1137.18 0 0
-76.9689 -18.5774 1173.16 0 0
-268.893 -14.9864 1143.83 0 0
-189.397 -14.8817 1135.85 0 0
-113.085 -15.0557 1149.13 0 0
-318.027 -12.3093 1187.19 0 0
-226.702 -11.7795 1136.09 0 0
-149.342 -11.8012 1138.19 0 0
-74.0074 -12.2043 1177.06 0 0
-266.178 -8.74669 1145.6 0 0
-186.716 -8.69195 1138.43 0 0
-110.047 -8.78182 1150.2 0 0
-310.91 -5.74753 1172.59 0 0
-222.761 -5.54781 1131.84 0 0
-146.117 -5.57456 1137.3 0 0
-70.8728 -5.77622 1178.44 0 0
-261.957 -2.47356 1140.86 0 0
-183.537 -2.46739 1138.02 0 0
-106.94 -2.4947 1150.61 0 0
-303.414 0.653598 1156.24 0 0
-220.142 0.64119 1134.29 0 0
-143.589 0.645505 1141.92 0 0
-331.593 3.70518 1123.22 0 0
-257.544 3.74455 1135.15 0 0
-180.032 3.74577 1135.53 0 0
-103.695 3.79188 1149.5 0 0
-298.011 6.9225 1147.6 0 0
-216.955 6.83948 1133.84 0 0
-140.222 6.87616 1139.92 0 0
-329.368 9.871 1126.11 0 0
-254.012 9.9335 1133.24 0 0
-177.169 9.96713 1137.08 0 0
-100.863 10.107 1153.04 0 0
-294.555 13.182 1146.36 0 0
-213.236 13.0002 1130.55 0 0
-136.947 13.0928 1138.6 0 0
-62.1821 13.7663 1197.17 0 0
-251.476 16.1649 1135.78 0 0
-173.3 16.1126 1132.11 0 0
-97.8414 16.4325 1154.58 0 0
-292.245 19.5039 1149.6 0 0
-210.547 19.2174 1132.71 0 0
-133.868 19.3221 1138.88 0 0
-326.477 22.4077 1137.49 0 0
-248.442 22.3803 1136.1 0 0
-170.937 22.3975 1136.97 0 0
-95.1096 22.8463 1159.75 0 0
-286.728 25.5768 1140.15 0 0
-207.299 25.3912 1131.88 0 0
-130.827 25.5622 1139.51 0 0
-329.289 29.1504 1158.32 0 0
-244.564 28.5012 1132.52 0 0
-167.82 28.6116 1136.91 0 0
-92.0743 29.2293 1161.45 0 0
-284.224 31.8785 1142.62 0 0
-205.324 31.752 1138.08 0 0
-127.708 31.7908 1139.47 0 0
-333.468 36.2818 1184.4 0 0
-241.924 34.758 1134.66 0 0
-164.454 34.7724 1135.13 0 0
-280.448 38.0365 1139.96 0 0
-200.788 37.7062 1130.06 0 0
-124.759 38.0708 1140.99 0 0
-49.52 40.2931 1207.59 0 0
118.182 41.2203 1235.38 0 0
-329.131 42.6145 1180.46 0 0
-237.559 40.7444 1128.66 0 0
-160.63 40.7948 1130.05 0 0
-86.2643 42.1921 1168.76 0 0
-7.13338 47.055 1303.47 0 0
78.4222 45.0349 1247.51 0 0
-274.676 43.8447 1129.05 0 0
-197.673 43.8783 1129.91 0 0
-122.06 44.4614 1144.93 0 0
-46.2745 46.951 1209.04 0 0
38.0129 49.1041 1264.48 0 0
118.406 46.7297 1203.34 0 0
-327.079 49.2448 1184.72 0 0
-234.767 46.9731 1130.06 0 0
-157.759 47.0375 1131.61 0 0
-83.2027 48.6594 1170.63 0 0
-3.49003 52.9606 1274.11 0 0
80.076 50.742 1220.73 0 0
-272.278 50.1437 1131.91 0 0
-194.589 50.0564 1129.94 0 0
-118.677 50.6124 1142.49 0 0
-43.2916 53.9619 1218.1 0 0
40.8401 55.167 1245.3 0 0
120.231 52.6667 1188.86 0 0
-324.27 55.7954 1186.29 0 0
-232.042 53.2344 1131.84 0 0
-154.794 53.2678 1132.55 0 0
-79.8987 54.9874 1169.11 0 0
-0.00724261 59.1829 1258.31 0 0
82.6005 56.8564 1208.85 0 0
158.763 54.6385 1161.69 0 0
-270.135 56.5307 1135.91 0 0
-191.641 56.2751 1130.77 0 0
-116.017 57.0858 1147.06 0 0
-40.1781 60.9489 1224.68 0 0
43.7689 61.3093 1231.93 0 0
122.464 58.6792 1179.08 0 0
-317.008 61.5008 1171.43 0 0
-228.18 59.2228 1128.04 0 0
-151.803 59.5005 1133.33 0 0
-77.7132 62.1871 1184.51 0 0
3.40535 65.544 1248.44 0 0
85.3052 63.022 1200.41 0 0
160.876 60.5891 1154.07 0 0
-267.763 62.9128 1139.03 0 0
-189.058 62.6249 1133.81 0 0
-113.737 63.8371 1155.76 0 0
-37.2629 68.4382 1239.06 0 0
46.7844 67.5361 1222.73 0 0
124.369 64.4421 1166.71 0 0
-312.689 67.6631 1167.26 0 0
-226.289 65.736 1134.02 0 0
-149.67 66.1226 1140.69 0 0
-74.1196 68.3346 1178.85 0 0
6.76451 71.8024 1238.67 0 0
87.6573 68.8546 1187.82 0 0
162.968 66.465 1146.59 0 0
-265.145 69.2692 1141.16 0 0
-186.616 69.0667 1137.82 0 0
-111.22 70.5625 1162.46 0 0
-34.2122 75.9583 1251.36 0 0
49.7165 73.6133 1212.72 0 0
126.993 70.5067 1161.54 0 0
-308.11 73.7123 1162.03 0 0
-223.045 71.8891 1133.29 0 0
-147.173 72.6653 1145.52 0 0
-71.4063 75.316 1187.31 0 0
10.0727 77.9734 1229.2 0 0
90.4715 74.9897 1182.17 0 0
165.213 72.3436 1140.45 0 0
-261.132 75.2501 1137.26 0 0
-183.038 75.0949 1134.92 0 0
-107.669 76.6518 1158.45 0 0
-30.6908 82.5281 1247.26 0 0
52.6349 79.6431 1203.66 0 0
129.533 76.4813 1155.87 0 0
-303.8 79.7673 1157.71 0 0
-219.514 77.9307 1131.05 0 0
-144.477 79.1661 1148.98 0 0
-68.7755 82.5446 1198.02 0 0
13.3673 84.281 1223.22 0 0
93.4163 81.2033 1178.55 0 0
167.111 78.0095 1132.2 0 0
-353.338 85.7377 1196.88 0 0
-257.976 81.4523 1137.05 0 0
-180.809 81.6941 1140.43 0 0
-105.325 83.6378 1167.56 0 0
-27.151 88.9193 1241.29 0 0
55.6711 85.8319 1198.19 0 0
132.239 82.5174 1151.92 0 0
-300.153 85.9582 1155.85 0 0
-217.008 84.3415 1134.11 0 0
-141.327 85.442 1148.91 0 0
-66.1708 90.0053 1210.27 0 0
16.598 90.3539 1214.96 0 0
95.9624 87.0338 1170.31 0 0
170.005 84.0994 1130.86 0 0
-254.406 87.5096 1134.99 0 0
-177.967 88.0647 1142.19 0 0
-102.997 90.7823 1177.44 0 0
-23.6365 95.2157 1234.94 0 0
58.6579 91.9303 1192.33 0 0
134.622 88.3128 1145.41 0 0
-294.81 91.5985 1147.35 0 0
-214.128 90.6347 1135.28 0 0
-138.318 91.8098 1150 0 0
-63.2403 97.2022 1217.54 0 0
19.8706 96.76 1212 0 0
98.6633 92.9625 1164.44 0 0
171.924 89.6705 1123.2 0 0
-350.483 99.8751 1209.61 0 0
-251.291 93.7097 1134.94 0 0
-174.936 94.3581 1142.79 0 0
-99.8363 97.2752 1178.12 0 0
-20.1289 101.303 1226.9 0 0
61.5179 97.8139 1184.64 0 0
137.179 94.1806 1140.64 0 0
-290.107 97.3452 1141.19 0 0
-210.452 96.5782 1132.2 0 0
-135.625 98.4233 1153.83 0 0
-59.3651 102.91 1206.42 0 0
23.0649 102.857 1205.8 0 0
101.269 98.7649 1157.83 0 0
174.42 95.4966 1119.52 0 0
-341.731 104.818 1190.63 0 0
-247.62 99.6856 1132.34 0 0
-172.151 100.804 1145.05 0 0
-96.8948 104.015 1181.52 0 0
-16.7107 107.594 1222.17 0 0
64.5118 103.897 1180.18 0 0
139.844 100.092 1136.96 0 0
-286.363 103.359 1138.7 0 0
-207.649 102.913 1133.79 0 0
-132.721 104.929 1156.01 0 0
-55.7983 108.98 1200.63 0 0
26.2194 108.861 1199.33 0 0
104.042 104.701 1153.49 0 0
177.145 101.424 1117.4 0 0
-335.285 110.277 1179.41 0 0
-244.264 105.763 1131.13 0 0
-169.12 107.126 1145.71 0 0
-93.7277 110.548 1182.31 0 0
-13.3075 113.741 1216.46 0 0
67.6244 110.164 1178.2 0 0
142.308 105.829 1131.84 0 0
-282.073 109.128 1133.97 0 0
-204.136 108.89 1131.5 0 0
-129.811 111.463 1158.24 0 0
-53.166 116.972 1215.48 0 0
29.36 114.879 1193.73 0 0
106.544 110.332 1146.48 0 0
179.562 107.153 1113.45 0 0
-329.467 115.813 1170.19 0 0
-241.271 111.992 1131.59 0 0
-165.932 113.351 1145.32 0 0
-91.159 117.869 1190.97 0 0
-9.96029 120.126 1213.77 0 0
70.4162 115.9 1171.07 0 0
144.975 111.687 1128.51 0 0
-278.247 115.027 1131.02 0 0
-200.234 114.613 1126.94 0 0
-127.208 118.319 1163.39 0 0
-50.296 124.739 1226.52 0 0
32.4817 120.88 1188.56 0 0
109.57 116.486 1145.36 0 0
-324.007 121.363 1162.08 0 0
-236.777 117.484 1124.94 0 0
-162.372 119.297 1142.3 0 0
-88.3283 124.981 1196.72 0 0
-6.61248 126.188 1208.28 0 0
73.1988 121.606 1164.41 0 0
147.393 117.327 1123.43 0 0
-275.162 121.213 1131.05 0 0
-197.07 120.722 1126.47 0 0
-124.311 124.964 1166.04 0 0
-46.8108 131.073 1223.05 0 0
35.6917 127.239 1187.27 0 0
112.212 122.214 1140.39 0 0
-319.232 127.079 1156.29 0 0
-231.91 122.686 1116.31 0 0
-160.596 126.604 1151.96 0 0
-85.4257 132.093 1201.91 0 0
-3.29499 132.203 1202.91 0 0
76.6408 128.406 1168.37 0 0
149.974 123.066 1119.78 0 0
-272.008 127.367 1130.79 0 0
-194.255 127.053 1128 0 0
-121.429 131.669 1168.98 0 0
-43.1909 136.882 1215.26 0 0
38.754 133.101 1181.69 0 0
114.985 128.066 1136.99 0 0
-315.931 133.341 1155.78 0 0
-228.054 128.336 1112.39 0 0
-157.266 132.748 1150.63 0 0
-82.5021 139.274 1207.2 0 0
-0.00690433 138.39 1199.54 0 0
79.3861 134.037 1161.8 0 0
152.904 129.077 1118.81 0 0
-268.254 133.22 1128 0 0
-191.668 133.566 1130.93 0 0
-118.419 138.276 1170.81 0 0
-39.7874 143.232 1212.78 0 0
41.9251 139.365 1180.03 0 0
117.839 133.993 1134.54 0 0
-311.771 139.213 1152.08 0 0
-225.246 134.556 1113.54 0 0
-154.219 139.127 1151.37 0 0
-79.1545 145.786 1206.47 0 0
3.25837 144.346 1194.56 0 0
82.4531 140.203 1160.27 0 0
156.252 135.445 1120.9 0 0
-367.866 149.817 1212.41 0 0
-264.192 138.872 1123.83 0 0
-188.614 139.776 1131.15 0 0
-116.011 145.672 1178.87 0 0
-36.3835 149.497 1209.82 0 0
45.02 145.394 1176.62 0 0
120.827 140.064 1133.48 0 0
-307.26 144.869 1147 0 0
-223.064 141.188 1117.85 0 0
-150.103 144.489 1143.98 0 0
-76.2002 153.071 1211.94 0 0
6.49655 150.251 1189.6 0 0
85.4657 146.274 1158.12 0 0
158.606 140.942 1115.9 0 0
-261.083 144.995 1123.67 0 0
-185.736 146.128 1132.46 0 0
-112.909 152.278 1180.12 0 0
-32.9879 155.693 1206.58 0 0
48.1306 151.494 1174.04 0 0
124.268 146.665 1136.61 0 0
-302.842 150.503 1142.16 0 0
-219.433 146.915 1114.93 0 0
-147.415 151.193 1147.4 0 0
-73.2605 160.514 1218.14 0 0
9.75718 156.898 1190.69 0 0
88.4808 152.346 1156.15 0 0
161.125 146.559 1112.23 0 0
-364.435 164.517 1223.14 0 0
-256.851 150.458 1118.62 0 0
-180.795 150.78 1121.01 0 0
-109.679 158.724 1180.07 0 0
-29.5524 161.538 1200.99 0 0
51.2731 157.707 1172.51 0 0
127.321 152.815 1136.14 0 0
-298.853 156.293 1138.86 0 0
-216.076 152.791 1113.34 0 0
-145.094 158.355 1153.88 0 0
-69.9666 167.259 1218.76 0 0
12.9532 162.671 1185.33 0 0
91.4668 158.365 1153.95 0 0
163.485 152.007 1107.63 0 0
-360.178 170.77 1220.05 0 0
-252.058 155.503 1110.97 0 0
-177.672 156.857 1120.64 0 0
-106.37 165.046 1179.15 0 0
-26.2133 167.743 1198.42 0 0
54.4451 164.018 1171.81 0 0
130.726 159.39 1138.74 0 0
-294.551 161.866 1134.28 0 0
-212.915 158.79 1112.72 0 0
-142.162 164.921 1155.69 0 0
-66.5244 173.633 1216.74 0 0
16.1935 169.153 1185.35 0 0
94.7391 164.879 1155.39 0 0
165.573 157.171 1101.38 0 0
-347.048 172.57 1186.56 0 0
-247.608 160.66 1104.67 0 0
-175.023 163.369 1123.3 0 0
-103.257 171.676 1180.41 0 0
-22.9534 174.416 1199.25 0 0
57.6309 170.373 1171.45 0 0
133.118 164.723 1132.61 0 0
-289.343 166.851 1126.08 0 0
-208.914 164.119 1107.63 0 0
-138.512 170.634 1151.61 0 0
-63.1407 180.12 1215.62 0 0
19.4327 175.625 1185.29 0 0
97.9908 171.359 1156.5 0 0
168.28 162.898 1099.39 0 0
-346.789 180.611 1196.86 0 0
-244.271 166.483 1103.24 0 0
-171.609 169.172 1121.05 0 0
-100.37 178.733 1184.41 0 0
-19.6403 180.649 1197.11 0 0
60.8126 176.718 1171.06 0 0
135.621 170.172 1127.68 0 0
-284.911 172.189 1120.75 0 0
-205.661 169.988 1106.43 0 0
-135.169 176.676 1149.95 0 0
-59.6827 186.343 1212.88 0 0
22.6878 182.227 1186.09 0 0
101.284 177.914 1158.01 0 0
-337.894 184.09 1177.26 0 0
-241.354 172.584 1103.69 0 0
-168.546 175.302 1121.07 0 0
-97.5013 185.911 1188.91 0 0
-16.3693 187.208 1197.2 0 0
64.005 183.095 1170.9 0 0
137.323 174.582 1116.46 0 0
-280.803 177.655 1116.6 0 0
-202.65 176.049 1106.5 0 0
-132.193 183.195 1151.41 0 0
-56.3484 192.909 1212.47 0 0
25.9066 188.542 1185.02 0 0
104.688 184.665 1160.65 0 0
-336.462 191.542 1183.55 0 0
-237.66 178.11 1100.55 0 0
-165.136 181.052 1118.73 0 0
-94.7346 193.397 1195.01 0 0
-13.1219 194.124 1199.5 0 0
67.4445 190.17 1175.07 0 0
139.789 179.931 1111.8 0 0
-276.779 183.116 1112.69 0 0
-199.632 182.103 1106.53 0 0
-129.254 189.794 1153.26 0 0
-52.975 199.315 1211.12 0 0
29.2447 195.683 1189.04 0 0
108.501 192.145 1167.55 0 0
-331.313 196.876 1176.75 0 0
-234.701 184.165 1100.78 0 0
-162.474 187.625 1121.46 0 0
-91.9433 200.969 1201.22 0 0
-9.81296 200.066 1195.82 0 0
70.6707 196.634 1175.3 0 0
141.849 184.734 1104.18 0 0
-273.306 188.901 1110.93 0 0
-196.234 187.795 1104.43 0 0
-126.382 196.535 1155.83 0 0
-49.6966 206.069 1211.9 0 0
32.4461 201.879 1187.26 0 0
111.97 199.02 1170.44 0 0
-324.712 201.211 1164.61 0 0
-231.278 189.843 1098.81 0 0
-159.062 193.335 1119.02 0 0
-89.5463 209.611 1213.23 0 0
-6.55171 206.839 1197.18 0 0
74.2934 204.186 1181.83 0 0
143.94 189.549 1097.11 0 0
-269.379 194.332 1107.28 0 0
-193.521 194.14 1106.18 0 0
-123.391 203.132 1157.41 0 0
-46.3609 212.589 1211.3 0 0
35.7991 208.998 1190.84 0 0
113.122 201.768 1149.64 0 0
-318.678 205.738 1154.28 0 0
-228.175 195.765 1098.33 0 0
-155.887 199.303 1118.18 0 0
-87.1353 218.514 1225.96 0 0
-3.29069 214.124 1201.34 0 0
77.9029 211.677 1187.6 0 0
146.593 195.088 1094.53 0 0
-264.724 199.16 1100.5 0 0
-189.699 199.348 1101.54 0 0
-120.224 209.453 1157.38 0 0
-43.1941 219.945 1215.35 0 0
39.1143 215.841 1192.68 0 0
114.791 205.416 1135.07 0 0
-312.477 210.002 1143.14 0 0
-224.641 201.293 1095.74 0 0
-152.758 205.319 1117.65 0 0
-84.2743 226.533 1233.13 0 0
-0.00691673 220.757 1201.69 0 0
81.5439 219.231 1193.38 0 0
149.229 200.593 1091.93 0 0
-262.33 205.658 1103.09 0 0
-186.601 205.275 1101.03 0 0
-117.576 216.73 1162.47 0 0
-39.9637 227.11 1218.15 0 0
42.452 222.768 1194.86 0 0
116.706 209.489 1123.64 0 0
-307.006 214.611 1134.47 0 0
-221.04 206.716 1092.74 0 0
-149.377 210.969 1115.22 0 0
-80.9737 233.477 1234.2 0 0
3.29426 228.466 1207.72 0 0
85.4101 227.363 1201.88 0 0
151.278 205.292 1085.21 0 0
-258.509 211.031 1099.66 0 0
-183.559 211.256 1100.83 0 0
-114.493 223.271 1163.44 0 0
-36.6205 233.683 1217.7 0 0
45.9568 230.497 1201.1 0 0
118.549 213.421 1112.12 0 0
-302.606 219.869 1129.62 0 0
-217.728 212.374 1091.12 0 0
-146.493 217.309 1116.47 0 0
-77.5444 240.052 1233.32 0 0
6.60615 235.449 1209.67 0 0
89.4186 235.841 1211.69 0 0
153.919 210.78 1082.93 0 0
-254.891 216.523 1097.03 0 0
-180.208 216.863 1098.75 0 0
-111.603 230.229 1166.47 0 0
-33.382 240.99 1220.99 0 0
49.5406 238.512 1208.43 0 0
121.072 218.567 1107.39 0 0
-298.205 225.053 1124.67 0 0
-214.266 217.851 1088.68 0 0
-143.735 223.87 1118.76 0 0
-74.3579 247.408 1236.39 0 0
9.9513 243.005 1214.38 0 0
92.8973 242.901 1213.86 0 0
-250.864 221.612 1092.55 0 0
-176.926 222.52 1097.02 0 0
-108.791 237.426 1170.52 0 0
-30.186 248.831 1226.74 0 0
53.3677 247.548 1220.42 0 0
123.355 223.275 1100.75 0 0
-293.295 229.763 1117.67 0 0
-211.481 224.004 1089.66 0 0
-140.858 230.282 1120.2 0 0
-71.1326 254.72 1239.07 0 0
13.3507 251.149 1221.7 0 0
93.717 243.058 1182.34 0 0
-248.013 227.709 1093.14 0 0
-173.55 228.021 1094.64 0 0
-106.151 245.118 1176.72 0 0
-26.9584 256.734 1232.48 0 0
125.948 228.538 1097.13 0 0
-289.292 235.103 1114.03 0 0
-208.605 230.075 1090.2 0 0
-138.314 237.295 1124.41 0 0
-68.0047 262.494 1243.81 0 0
16.8703 260.611 1234.89 0 0
95.4437 245.647 1163.99 0 0
-339.087 247.835 1159.34 0 0
-244.988 233.649 1092.98 0 0
-170.957 234.553 1097.21 0 0
-103.658 253.32 1185 0 0
-23.7889 265.699 1242.9 0 0
128.485 233.695 1093.19 0 0
-285.203 240.314 1109.96 0 0
-205.951 236.409 1091.93 0 0
-135.082 243.156 1123.09 0 0
-65.0658 271.215 1252.69 0 0
96.8635 247.509 1143.19 0 0
-352.625 266.814 1217 0 0
-241.594 239.222 1091.14 0 0
-167.895 240.46 1096.79 0 0
-102.313 264.698 1207.35 0 0
-20.6876 276.45 1260.95 0 0
130.747 238.347 1087.15 0 0
-281.464 245.766 1107.19 0 0
-202.129 241.379 1087.42 0 0
-132.372 249.975 1126.15 0 0
-62.3848 281.415 1267.79 0 0
98.6692 250.41 1128.11 0 0
-238.535 245.109 1090.79 0 0
-164.872 246.42 1096.63 0 0
133.53 243.947 1085.62 0 0
-278.281 251.677 1106.57 0 0
-198.814 246.897 1085.55 0 0
-129.238 256.023 1125.67 0 0
100.752 254.053 1117.01 0 0
-320.753 259.702 1128.29 0 0
-235.067 250.553 1088.54 0 0
135.876 248.743 1080.68 0 0
-274.141 256.682 1102.08 0 0
-196.013 253.047 1086.47 0 0
-126.456 262.789 1128.3 0 0
102.847 257.758 1106.7 0 0
-324.311 271.43 1151.88 0 0
-231.696 256.067 1086.69 0 0
-158.649 258.039 1095.05 0 0
71.3602 279.651 1186.77 0 0
138.534 254.109 1078.38 0 0
-270.78 262.37 1100.67 0 0
-193.045 258.989 1086.48 0 0
-123.623 269.505 1130.6 0 0
105.117 261.928 1098.81 0 0
-321.445 277.971 1152.89 0 0
-228.556 261.813 1085.88 0 0
-156.104 264.786 1098.21 0 0
-6.80556 299.833 1243.57 0 0
74.0233 283.911 1177.53 0 0
141.265 259.605 1076.72 0 0
-267.593 268.208 1099.93 0 0
-189.993 264.814 1086.01 0 0
-120.864 276.444 1133.71 0 0
107.393 266.131 1091.41 0 0
-315.869 282.108 1144.11 0 0
-225.324 267.437 1084.61 0 0
-153.273 271.093 1099.44 0 0
77.9586 293.042 1188.45 0 0
-263.766 273.372 1096.52 0 0
-186.781 270.399 1084.6 0 0
-118.074 283.383 1136.68 0 0
110.095 271.404 1088.63 0 0
-313.216 288.8 1145.85 0 0
-222.508 273.549 1085.34 0 0
-150.393 277.333 1100.35 0 0
80.9153 298.463 1184.18 0 0
-260.762 279.359 1096.49 0 0
-184.173 276.865 1086.71 0 0
-115.283 290.392 1139.8 0 0
112.611 276.228 1084.21 0 0
-307.708 292.804 1137.07 0 0
-219.972 280.03 1087.46 0 0
-147.134 282.866 1098.47 0 0
81.9826 297.075 1153.65 0 0
-257.503 285.063 1095.38 0 0
-181.34 283.02 1087.53 0 0
-112.886 298.525 1147.11 0 0
115.129 281.069 1080.03 0 0
-303.945 298.377 1134.62 0 0
-216.602 285.452 1085.47 0 0
-144.431 289.472 1100.76 0 0
83.5716 297.807 1132.45 0 0
-254.653 291.216 1096 0 0
-178.307 288.868 1087.16 0 0
-110.342 306.437 1153.29 0 0
117.946 286.644 1078.79 0 0
-298.91 302.622 1127.33 0 0
-213.307 290.939 1083.81 0 0
-141.369 295.378 1100.34 0 0
85.4115 299.594 1116.05 0 0
-251.425 296.934 1094.99 0 0
-175.341 294.821 1087.2 0 0
-108.216 315.738 1164.33 0 0
120.53 291.659 1075.54 0 0
-294.793 307.705 1123.39 0 0
-210.456 297.021 1084.38 0 0
-138.722 302.18 1103.21 0 0
87.5801 302.647 1104.92 0 0
-248.285 302.741 1094.34 0 0
-172.383 300.787 1087.28 0 0
123.744 298.199 1077.92 0 0
-290.456 312.483 1118.51 0 0
-207.272 302.628 1083.23 0 0
-136.022 308.928 1105.78 0 0
89.9599 306.505 1097.11 0 0
-245.465 308.939 1095.11 0 0
-169.037 306.055 1084.88 0 0
57.1979 327.995 1162.65 0 0
126.317 303.196 1074.75 0 0
-286.344 317.429 1114.4 0 0
-204.082 308.204 1082.02 0 0
-132.725 314.322 1103.5 0 0
92.555 311.146 1092.34 0 0
-241.903 314.187 1092.54 0 0
-166.543 312.871 1087.96 0 0
56.8909 315.051 1095.54 0 0
128.97 308.39 1072.38 0 0
-282.509 322.621 1111.3 0 0
-201.094 314.072 1081.85 0 0
-129.922 320.881 1105.31 0 0
95.0151 315.372 1086.33 0 0
-239.384 320.787 1094.68 0 0
131.617 313.575 1070.07 0 0
-279.329 328.528 1110.73 0 0
-197.955 319.693 1080.86 0 0
-127.405 328.224 1109.7 0 0
97.4882 319.684 1080.83 0 0
-235.737 325.865 1091.64 0 0
-160.563 324.701 1087.74 0 0
64.4046 334.959 1122.1 0 0
134.423 319.144 1069.13 0 0
-276.257 334.558 1110.59 0 0
-195.079 325.733 1081.3 0 0
-124.589 334.874 1111.64 0 0
100.008 324.184 1076.15 0 0
-232.569 331.571 1090.78 0 0
-157.446 330.346 1086.75 0 0
68.2077 344.813 1134.34 0 0
-272.247 339.415 1106.63 0 0
-192.138 331.67 1081.38 0 0
-121.904 341.944 1114.88 0 0
102.523 328.699 1071.7 0 0
-323.682 359.237 1160.92 0 0
-229.223 336.999 1089.05 0 0
-154.499 336.339 1086.92 0 0
71.5272 352.091 1137.82 0 0
-269.395 345.685 1107.34 0 0
-188.785 336.873 1079.11 0 0
-119.179 348.982 1117.9 0 0
105.422 334.462 1071.39 0 0
-317.582 362.246 1150.32 0 0
-226.226 342.921 1088.95 0 0
-151.724 342.723 1088.32 0 0
73.7816 354.204 1124.78 0 0
-265.546 350.654 1103.92 0 0
-185.681 342.486 1078.21 0 0
-116.443 356.07 1120.98 0 0
107.851 338.749 1066.45 0 0
-302.409 354.437 1106.31 0 0
-223.317 348.981 1089.28 0 0
-148.799 348.791 1088.69 0 0
75.555 354.252 1105.74 0 0
-262.102 356.109 1102.13 0 0
-182.843 348.59 1078.86 0 0
-113.727 363.312 1124.42 0 0
110.686 344.331 1065.68 0 0
-305.836 368.252 1130.15 0 0
-220.152 354.633 1088.35 0 0
-146.114 355.45 1090.86 0 0
77.5748 355.7 1091.63 0 0
-259.011 362.024 1101.79 0 0
-179.592 353.893 1077.05 0 0
-111.318 371.678 1131.18 0 0
44.5404 382.491 1164.08 0 0
113.641 350.285 1066.07 0 0
-300.181 371.257 1120.57 0 0
-216.682 359.762 1085.88 0 0
-142.827 360.642 1088.53 0 0
80.0155 359.229 1084.27 0 0
-255.725 367.654 1100.61 0 0
-176.459 359.396 1075.89 0 0
-109.109 380.945 1140.4 0 0
116.248 355.175 1063.26 0 0
-300.145 381.228 1131.99 0 0
-213.959 366.117 1087.12 0 0
-140.385 367.992 1092.69 0 0
82.731 364.064 1081.02 0 0
-252.579 373.467 1100.02 0 0
-173.072 364.338 1073.13 0 0
-106.852 390.322 1149.66 0 0
47.972 372.452 1097.03 0 0
119.144 360.959 1063.17 0 0
-295.067 384.829 1124.43 0 0
-211.148 372.344 1087.95 0 0
-137.365 373.875 1092.42 0 0
85.1972 367.863 1074.86 0 0
-248.921 378.491 1097.15 0 0
-170.336 370.634 1074.37 0 0
50.7583 376.873 1092.46 0 0
121.914 366.359 1061.98 0 0
-293.791 393.383 1131.35 0 0
-207.814 377.636 1086.06 0 0
-134.76 380.923 1095.52 0 0
88.0372 373.324 1073.66 0 0
-246.006 384.62 1097.52 0 0
-167.609 376.979 1075.72 0 0
56.7667 404.374 1153.89 0 0
124.56 371.4 1059.8 0 0
-301.275 414.106 1172.51 0 0
-204.295 382.543 1083.14 0 0
-131.997 387.594 1097.45 0 0
90.2945 376.37 1065.67 0 0
-242.584 389.942 1095.61 0 0
-165.04 383.724 1078.14 0 0
57.4325 393.628 1105.97 0 0
127.395 377.012 1059.29 0 0
-301.86 425.862 1187.42 0 0
-201.251 388.305 1082.7 0 0
-128.848 393.136 1096.17 0 0
92.9352 381.079 1062.55 0 0
-239.549 395.864 1095.43 0 0
-162.065 389.55 1077.96 0 0
61.5724 407.058 1126.4 0 0
-282.446 408.944 1123.13 0 0
-197.782 393.211 1079.92 0 0
-126.413 400.911 1101.07 0 0
95.5236 385.612 1059.05 0 0
-236.102 401.083 1093.33 0 0
-159.062 395.302 1077.57 0 0
62.9946 402.626 1097.54 0 0
-276.645 411.027 1112.15 0 0
-194.421 398.277 1077.65 0 0
-123.917 408.625 1105.65 0 0
98.6055 392.146 1061.06 0 0
-233.211 407.231 1093.79 0 0
-156.378 401.867 1079.38 0 0
65.2345 403.92 1084.9 0 0
-281.623 429.33 1144.74 0 0
-191.244 403.68 1076.35 0 0
-121.056 415.222 1107.12 0 0
100.906 395.594 1054.79 0 0
-230.58 413.855 1095.5 0 0
-153.58 408.172 1080.45 0 0
68.6006 412.258 1091.27 0 0
-275.83 431.421 1133.79 0 0
-188.403 409.783 1076.92 0 0
-118.523 423.035 1111.75 0 0
103.878 401.705 1055.7 0 0
-226.654 418.125 1091.01 0 0
-150.695 414.267 1080.94 0 0
71.1779 415.854 1085.08 0 0
-272.778 437.695 1133.99 0 0
-185.441 415.629 1076.82 0 0
-115.928 430.762 1116.02 0 0
107.422 409.988 1062.2 0 0
-223.725 424.19 1091.27 0 0
-147.867 420.537 1081.87 0 0
-271.556 446.986 1141.88 0 0
-181.983 420.327 1073.78 0 0
-113.11 437.761 1118.32 0 0
109.978 414.484 1058.85 0 0
-220.418 429.525 1089.67 0 0
-144.912 426.457 1081.89 0 0
-264.9 447.26 1126.85 0 0
-179.305 426.811 1075.33 0 0
-110.686 446.427 1124.75 0 0
112.697 419.623 1057.22 0 0
-216.942 434.487 1087.18 0 0
-142.271 433.335 1084.3 0 0
-259.453 449.321 1116.66 0 0
-176.376 432.715 1075.39 0 0
-108.292 455.441 1131.87 0 0
47.1086 462.379 1149.11 0 0
-213.524 439.511 1084.91 0 0
-139.695 440.487 1087.32 0 0
-256.183 455.039 1115.71 0 0
-173.599 439.004 1076.39 0 0
-106.128 465.705 1141.86 0 0
48.7293 454.482 1114.34 0 0
-210.061 444.39 1082.35 0 0
-137.082 447.603 1090.17 0 0
-252.022 459.114 1110.81 0 0
-170.724 445.065 1076.82 0 0
51.9475 462.105 1118.05 0 0
-206.677 449.382 1080.12 0 0
-134.194 453.872 1090.92 0 0
-248.371 464.039 1108.07 0 0
-167.878 451.212 1077.44 0 0
54.1419 460.882 1100.53 0 0
-204.023 455.954 1081.7 0 0
-131.44 460.635 1092.81 0 0
-245.205 469.833 1107.45 0 0
-164.936 457.112 1077.47 0 0
56.6313 462.66 1090.54 0 0
-201.151 462.062 1082.16 0 0
-128.732 467.625 1095.19 0 0
-241.437 474.432 1104.07 0 0
-162.345 464.015 1079.82 0 0
59.1169 464.728 1081.48 0 0
-197.826 467.11 1080.16 0 0
-126.517 476.543 1101.97 0 0
-237.834 479.288 1101.35 0 0
-159.658 470.698 1081.61 0 0
61.6582 467.495 1074.25 0 0
-194.496 472.1 1078.06 0 0
-123.41 482.198 1101.12 0 0
-234.466 484.57 1099.68 0 0
-156.805 476.926 1082.33 0 0
64.012 469.098 1064.56 0 0
-191.393 477.603 1077.18 0 0
-120.095 486.98 1098.33 0 0
31.822 516.283 1164.42 0 0
-230.22 487.954 1093.79 0 0
-154.025 483.401 1083.58 0 0
66.6188 472.766 1059.74 0 0
-188.269 483.032 1076.16 0 0
-117.701 495.545 1104.04 0 0
-227.667 494.884 1095.89 0 0
-150.834 488.584 1081.94 0 0
69.2979 477.062 1056.43 0 0
-185.656 489.782 1078.07 0 0
-116.402 509.098 1120.58 0 0
36.3212 503.158 1107.51 0 0
-223.867 499.081 1091.96 0 0
-148.182 495.52 1084.17 0 0
71.8815 480.803 1051.98 0 0
-183.547 497.949 1083.01 0 0
-114.465 520.341 1131.71 0 0
38.6543 500.228 1087.97 0 0
-220.644 504.506 1090.79 0 0
-145.782 503.391 1088.38 0 0
74.3459 483.879 1046.19 0 0
-180.679 504.125 1083.56 0 0
-115.262 544.924 1171.25 0 0
41.2506 501.585 1078.1 0 0
108.969 475.598 1022.25 0 0
-218.328 512.03 1094.12 0 0
-142.922 509.753 1089.26 0 0
76.8776 487.519 1041.75 0 0
-177.627 509.791 1083.01 0 0
43.8401 503.375 1069.38 0 0
111.639 480.649 1021.1 0 0
-214.052 514.919 1087.59 0 0
-140.062 516.142 1090.17 0 0
79.658 492.798 1040.87 0 0
-174.41 514.954 1081.42 0 0
46.3559 504.786 1060.07 0 0
114.354 485.909 1020.43 0 0
-211.026 520.733 1087.32 0 0
-137.111 522.208 1090.4 0 0
82.1137 496.135 1035.96 0 0
-171.53 521.099 1081.9 0 0
48.7784 505.656 1049.84 0 0
116.965 490.74 1018.87 0 0
-208.255 527.186 1088.37 0 0
-134.842 530.972 1096.18 0 0
84.5158 499.261 1030.72 0 0
-169.683 530.485 1089.03 0 0
51.5551 510.474 1047.95 0 0
120.068 497.629 1021.58 0 0
-206.085 535.228 1092.64 0 0
-133.063 541.923 1106.3 0 0
87.4012 505.289 1031.52 0 0
153.71 491.91 1004.21 0 0
-166.675 536.336 1088.82 0 0
54.6399 518.293 1052.19 0 0
123.859 507.301 1029.88 0 0
-202.503 539.615 1089.44 0 0
-130.072 548.111 1106.59 0 0
90.6634 513.435 1036.58 0 0
155.646 494.829 999.016 0 0
-246.198 560.722 1125.83 0 0
127.687 517.032 1038.11 0 0
-199.282 544.905 1088.11 0 0
158.239 499.855 998.146 0 0
-239.355 558.097 1108.4 0 0
134.253 537.64 1067.77 0 0
-196.244 550.676 1087.76 0 0
160.849 504.939 997.409 0 0
-235.202 561.476 1103.13 0 0
-194.013 558.76 1091.93 0 0
163.553 510.321 997.272 0 0
-230.73 563.944 1096.21 0 0
-228.155 570.992 1098.24 0 0
-224.725 575.9 1096.15 0 0
-221.653 581.693 1095.78 0 0
-147.248 583.578 1099.33 0 0
-273.915 621.73 1165.2 0 0
-182.095 582.703 1092.05 0 0
-218.515 587.301 1095.06 0 0
-147.231 601.803 1122.1 0 0
-264.689 614.084 1139.19 0 0
-215.43 593.034 1094.59 0 0
-257.01 609.486 1119.31 0 0
-211.894 597.483 1091.79 0 0
-253.511 614.54 1117.38 0 0
-208.205 601.417 1088.11 0 0
-247.859 614.211 1105.79 0 0
-205.578 608.393 1089.95 0 0
-140.094 650.156 1164.77 0 0
-243.989 618.11 1101.96 0 0
-202.271 613.36 1088.19 0 0
-242.317 627.605 1108.09 0 0
-166.365 626.74 1106.56 0 0
-199.206 619.026 1087.69 0 0
-238.067 630.428 1102.43 0 0
-295.549 682.691 1188.14 0 0
-196.18 624.805 1087.4 0 0
-232.896 630.615 1092.32 0 0
-287.453 677.757 1168.44 0 0
-229.053 634.211 1088.24 0 0
-275.347 662.695 1131.81 0 0
-226.653 641.789 1091.01 0 0
-271.481 666.984 1128.59 0 0
-223.34 646.796 1089.4 0 0
-265.548 666.011 1116.62 0 0
-220.998 654.632 1092.53 0 0
-259.815 665.252 1105.22 0 0
-217.107 657.865 1088 0 0
-258.013 674.479 1110.46 0 0
