ply
format ascii 1.0
element vertex 1396
property float x
property float y
property float z
property float u
property float v
end_header
-101.149 -578.23 1275.93 0 0
-143.42 -576.425 1279.66 0 0
-97.4289 -569.893 1272.88 0 0
-140.884 -573.342 1288.46 0 0
-95.0008 -569.233 1287.13 0 0
-135.678 -559.358 1272.66 0 0
-49.2803 -565.91 1287.57 0 0
-91.1453 -560.124 1282.38 0 0
-132.428 -553.357 1274.87 0 0
-45.4576 -555.168 1279.04 0 0
-177.683 -560.72 1300.02 0 0
-87.4564 -551.954 1279.7 0 0
-128.817 -545.85 1273.62 0 0
-42.8633 -559.958 1306.53 0 0
-171.202 -544.305 1278.16 0 0
-83.9139 -544.669 1279.02 0 0
-125.068 -537.736 1270.89 0 0
-39.2025 -551.556 1303.56 0 0
-164.82 -528.065 1256.15 0 0
-80.0213 -535.026 1272.71 0 0
-121.22 -529.157 1266.99 0 0
-35.6482 -544.566 1303.88 0 0
-165.941 -535.907 1291.6 0 0
-76.3812 -526.956 1270.03 0 0
-208.086 -531.812 1290.23 0 0
-117.711 -522.028 1266.5 0 0
-158.83 -517.185 1263.12 0 0
-72.9393 -520.225 1270.55 0 0
-207.812 -533.102 1310.75 0 0
-113.88 -513.437 1262.4 0 0
-154.083 -506.031 1252.61 0 0
-69.2847 -511.936 1267.22 0 0
-201.163 -518.04 1291.07 0 0
-110.604 -507.34 1264.4 0 0
-148.981 -493.621 1238.65 0 0
-66.0745 -506.955 1272.11 0 0
-194.528 -502.951 1270.78 0 0
-106.701 -498.338 1259.12 0 0
-147.304 -492.564 1253.19 0 0
-62.8426 -501.96 1277.09 0 0
-190.81 -495.369 1269.15 0 0
-103.231 -491.323 1258.78 0 0
-143.876 -485.703 1253.16 0 0
-59.4496 -495.795 1279.2 0 0
-187.223 -488.125 1268.36 0 0
-99.9204 -485.072 1260.42 0 0
-141.374 -482.003 1261.41 0 0
-56.0148 -489.341 1280.61 0 0
-181.31 -474.786 1251.47 0 0
-96.2144 -476.889 1257.02 0 0
-225.481 -477.981 1269.04 0 0
-137.345 -473.107 1256.1 0 0
-52.5824 -482.965 1282.27 0 0
-179.498 -472.176 1262.79 0 0
-92.7169 -469.706 1256.18 0 0
-225.267 -477.949 1287.64 0 0
-134.316 -467.648 1259.89 0 0
-49.1548 -476.706 1284.29 0 0
-174.338 -460.757 1250.53 0 0
-89.2615 -462.726 1255.88 0 0
-221.264 -469.884 1284.84 0 0
-130.511 -459.489 1256.41 0 0
-46.0071 -473.419 1294.5 0 0
-170.67 -453.258 1248.71 0 0
-85.7648 -455.521 1254.94 0 0
-218.242 -463.901 1287.73 0 0
-127.157 -452.904 1257.2 0 0
-42.6336 -468.153 1299.53 0 0
-165.742 -442.388 1237.4 0 0
-82.6188 -450.21 1259.28 0 0
-211.076 -449.104 1265.86 0 0
-123.398 -444.87 1253.93 0 0
-39.1001 -461.269 1300.15 0 0
-163.261 -438.041 1244.27 0 0
-79.3956 -444.551 1262.76 0 0
-205.88 -438.485 1255.28 0 0
-258.406 -455.043 1312.95 0 0
-158.42 -427.356 1233.06 0 0
-75.986 -437.89 1263.46 0 0
-198.821 -423.888 1232.78 0 0
-253.696 -445.896 1307.18 0 0
-156.505 -424.561 1244.63 0 0
-72.5527 -431.104 1263.81 0 0
-197.534 -421.594 1245.92 0 0
-250.165 -438.823 1307.39 0 0
-153.377 -418.506 1246.86 0 0
-69.0089 -423.647 1262.18 0 0
-288.525 -428.531 1287.21 0 0
-193.304 -413.021 1240.63 0 0
-109.874 -418.156 1256.05 0 0
-246.062 -430.75 1304.59 0 0
-150.575 -413.353 1251.9 0 0
-287.127 -424.629 1296.79 0 0
-192.061 -410.834 1254.66 0 0
-239.738 -418.799 1289.75 0 0
-147.366 -407.098 1253.72 0 0
-284.118 -418.329 1299.24 0 0
-187.664 -401.903 1248.23 0 0
-233.091 -406.307 1272.71 0 0
-144.457 -401.685 1258.23 0 0
-280.295 -410.828 1297.98 0 0
-183.711 -393.919 1244.56 0 0
-99.8128 -398.511 1259.07 0 0
-230.438 -400.787 1277.29 0 0
-141.121 -395.095 1259.15 0 0
-274.068 -399.824 1285.42 0 0
-180.206 -386.895 1243.85 0 0
-96.3917 -391.711 1259.33 0 0
-223.102 -387.133 1255.65 0 0
-138.15 -389.538 1263.45 0 0
-256.968 -373.071 1220.86 0 0
-175.451 -377.182 1234.32 0 0
-307.422 -382.691 1263.65 0 0
-217.568 -376.629 1243.63 0 0
-236.229 -341.258 1137.1 0 0
-171.628 -369.467 1231.1 0 0
-277.671 -343.273 1154.33 0 0
-213.359 -368.432 1238.93 0 0
-225.347 -323.869 1099.18 0 0
-166.977 -359.964 1221.68 0 0
-267.105 -327.866 1123.17 0 0
-206.95 -356.452 1221.1 0 0
105.719 -297.125 1017.86 0 0
-219.481 -313.769 1085.04 0 0
-162.641 -351.133 1214.24 0 0
-259.925 -316.717 1105.68 0 0
-201.191 -345.618 1206.58 0 0
-213.724 -303.869 1071.05 0 0
-157.733 -341.06 1202.14 0 0
-253.932 -307.08 1092.9 0 0
-192.084 -329.07 1171.16 0 0
71.9166 -261.47 939.713 0 0
-246.683 -295.993 1074.34 0 0
-89.35 -264.862 961.348 0 0
-23.1769 -259.503 941.896 0 0
41.1052 -258.98 939.996 0 0
-313.325 -325.698 1194.01 0 0
-201.06 -282.59 1035.97 0 0
-122.273 -265.25 972.402 0 0
-53.9152 -256.182 939.161 0 0
10.2291 -255.332 936.043 0 0
74.1702 -255.249 935.739 0 0
-242.479 -288.61 1068.75 0 0
-154.279 -262.779 973.097 0 0
-84.9639 -254.343 941.857 0 0
-20.4064 -251.936 932.941 0 0
43.3631 -252.03 933.291 0 0
-307.123 -316.146 1182.69 0 0
-192.753 -269.277 1007.36 0 0
-117.07 -254.403 951.711 0 0
-50.9139 -248.925 931.22 0 0
12.7767 -250.001 935.243 0 0
76.5351 -249.505 933.387 0 0
-236.975 -279.72 1057.23 0 0
-149.027 -253.058 956.46 0 0
-81.6316 -246.902 933.193 0 0
-17.7812 -245.798 929.02 0 0
45.8366 -246.511 931.714 0 0
-299.961 -305.677 1167.4 0 0
-186.464 -258.861 988.609 0 0
-112.863 -245.705 938.365 0 0
-48.3871 -243.928 931.579 0 0
15.2405 -243.408 929.59 0 0
-231.374 -270.766 1044.98 0 0
-145.609 -246.468 951.206 0 0
-78.9465 -241.39 931.609 0 0
-15.2863 -241.421 931.731 0 0
48.336 -241.18 930.801 0 0
-290.607 -293.079 1143.15 0 0
-182.19 -251.29 980.155 0 0
-109.979 -239.879 935.647 0 0
-45.7703 -238.469 930.149 0 0
17.7296 -237.63 926.878 0 0
-225.366 -261.399 1030.57 0 0
-142.561 -240.513 948.232 0 0
-76.4782 -236.539 932.562 0 0
-12.7072 -235.729 929.37 0 0
51.017 -236.726 933.303 0 0
-282.551 -281.909 1123.55 0 0
-178.044 -243.921 972.145 0 0
-107.206 -234.293 933.773 0 0
-43.171 -233.077 928.925 0 0
20.2684 -232.624 927.119 0 0
84.8643 -236.075 940.872 0 0
-220.721 -253.663 1022.11 0 0
-139.621 -234.743 945.868 0 0
-73.8441 -231.174 931.489 0 0
-10.1584 -230.457 928.598 0 0
53.6999 -232.194 935.598 0 0
-276.415 -272.743 1111.23 0 0
-174.589 -237.522 967.725 0 0
-104.484 -228.816 932.257 0 0
-40.6302 -227.99 928.889 0 0
22.8382 -227.911 928.568 0 0
88.358 -233.366 950.793 0 0
-216.197 -246.106 1013.99 0 0
-136.019 -227.87 938.856 0 0
-71.1811 -225.712 929.964 0 0
-7.62674 -225.576 929.404 0 0
56.5441 -228.237 940.369 0 0
-270.079 -263.45 1097.82 0 0
-172.199 -232.576 969.161 0 0
-101.876 -223.59 931.714 0 0
-38.1108 -223.027 929.369 0 0
25.4926 -223.855 932.821 0 0
91.6748 -229.969 958.296 0 0
-211.464 -238.352 1004.67 0 0
-133.164 -222.255 936.825 0 0
-68.858 -221.331 932.929 0 0
-5.09304 -220.788 930.641 0 0
59.5603 -224.778 947.459 0 0
-264.785 -255.238 1088.39 0 0
-168.656 -226.079 964.049 0 0
-99.671 -219.247 934.916 0 0
-35.5418 -217.77 928.619 0 0
28.2877 -220.669 940.978 0 0
-206.879 -230.808 995.823 0 0
-130.823 -217.499 938.398 0 0
-66.4018 -216.537 934.25 0 0
-2.57025 -217.482 938.327 0 0
63.4938 -224.346 967.943 0 0
-258.704 -246.331 1075.48 0 0
-165.774 -220.48 962.614 0 0
-97.3443 -214.64 937.119 0 0
-33.1336 -213.533 932.281 0 0
-203.471 -224.607 992.478 0 0
-128.633 -212.99 941.146 0 0
-63.789 -211.234 933.386 0 0
-254.179 -238.961 1068.81 0 0
-162.346 -214.167 957.916 0 0
-95.0849 -210.185 940.106 0 0
-30.78 -209.763 938.216 0 0
-200.069 -218.429 989.07 0 0
-126.44 -208.47 943.977 0 0
-61.5158 -207.068 937.626 0 0
-249.227 -231.234 1060.17 0 0
-158.621 -207.482 951.278 0 0
-92.7268 -205.515 942.257 0 0
-320.501 -257.681 1196.42 0 0
-196.552 -212.144 984.995 0 0
-124.638 -204.587 949.908 0 0
-59.2567 -202.982 942.457 0 0
-245.675 -224.84 1057.36 0 0
-155.514 -201.625 948.186 0 0
-90.3857 -200.885 944.708 0 0
-314.946 -249.332 1187.81 0 0
-193.208 -206.064 981.684 0 0
-122.361 -199.916 952.393 0 0
-57.111 -199.333 949.615 0 0
-242.634 -218.923 1056.7 0 0
-153.72 -197.466 953.136 0 0
-88.3424 -196.922 950.507 0 0
-309.794 -241.354 1180.55 0 0
-191.182 -201.39 985.072 0 0
-120.49 -195.9 958.22 0 0
-55.1071 -196.249 959.924 0 0
-239.582 -213.001 1055.98 0 0
-152.588 -194.131 962.431 0 0
-86.383 -193.154 957.588 0 0
-306.873 -235.134 1181.73 0 0
-188.897 -196.428 987.201 0 0
-119.056 -192.579 967.853 0 0
-53.3348 -194.1 975.499 0 0
-237.942 -208.32 1061.55 0 0
-152.823 -192.478 980.823 0 0
-304.248 -229.13 1184.08 0 0
-186.657 -191.502 989.633 0 0
-117.388 -188.86 975.98 0 0
-52.3681 -195.1 1008.22 0 0
-234.666 -202.193 1059.85 0 0
-152.841 -190.48 998.454 0 0
-301.1 -222.722 1184.43 0 0
-185.285 -187.441 996.806 0 0
-117.124 -187.37 996.43 0 0
-236.65 -200.536 1082.18 0 0
-150.937 -186.038 1003.94 0 0
-297.97 -216.325 1184.86 0 0
-184.672 -184.096 1008.33 0 0
-123.999 -197.188 1080.04 0 0
-242.159 -201.671 1121.38 0 0
-150.196 -182.99 1017.51 0 0
-99.6986 -226.173 1257.63 0 0
-294.192 -209.464 1182.69 0 0
-184.46 -181.081 1022.43 0 0
-128.671 -203.332 1148.07 0 0
-248.362 -203.12 1164.85 0 0
-155.426 -187.07 1072.81 0 0
-96.9773 -220.929 1266.98 0 0
-291.007 -203.032 1182.89 0 0
-187.466 -181.096 1055.09 0 0
-125.766 -197.42 1150.19 0 0
-337.692 -204.575 1211.16 0 0
-245.703 -197.173 1167.34 0 0
-161.477 -191.881 1136.01 0 0
-93.7366 -214.512 1270 0 0
-287.534 -196.401 1181.9 0 0
-196.513 -186.66 1123.28 0 0
-123.044 -191.791 1154.16 0 0
-316.858 -187.58 1147.69 0 0
-241.932 -190.335 1164.55 0 0
-158.144 -185.403 1134.38 0 0
-89.6256 -206.099 1261 0 0
-283.951 -189.704 1180.43 0 0
-195.665 -182.594 1136.19 0 0
-119.541 -184.942 1150.8 0 0
-238.369 -183.676 1162.7 0 0
-155.129 -179.301 1135.01 0 0
-84.9924 -196.463 1243.64 0 0
-280.352 -183.008 1178.87 0 0
-192.97 -176.758 1138.61 0 0
-116.43 -178.704 1151.15 0 0
-334.511 -188.515 1236.11 0 0
-233.356 -175.936 1153.63 0 0
-152.145 -173.23 1135.88 0 0
-80.2626 -186.571 1223.36 0 0
-276.471 -176.144 1176.07 0 0
-189.736 -170.424 1137.88 0 0
-112.821 -171.707 1146.44 0 0
-328.877 -180.52 1227.69 0 0
-228.336 -168.254 1144.28 0 0
-148.602 -166.53 1132.55 0 0
-76.4135 -178.702 1215.33 0 0
-272.28 -169.108 1171.87 0 0
-186.041 -163.689 1134.32 0 0
-109.759 -165.547 1147.19 0 0
-324.017 -173.005 1222.02 0 0
-224.636 -161.587 1141.37 0 0
-145.766 -160.624 1134.57 0 0
-72.4773 -170.612 1205.12 0 0
-267.747 -161.897 1166.07 0 0
-182.385 -157.01 1130.87 0 0
-106.667 -159.341 1147.66 0 0
-316.592 -164.206 1206.46 0 0
-221.138 -155.082 1139.42 0 0
-142.644 -154.399 1134.4 0 0
-68.9305 -163.425 1200.72 0 0
-263.507 -154.904 1161.44 0 0
-179.736 -151.199 1133.66 0 0
-103.69 -153.304 1149.44 0 0
-310.783 -156.347 1196.78 0 0
-217.205 -148.294 1135.14 0 0
-139.413 -148.059 1133.34 0 0
-66.0085 -157.721 1207.3 0 0
-259.153 -147.882 1156.17 0 0
-176.441 -144.841 1132.4 0 0
-101.284 -148.097 1157.86 0 0
-305.362 -148.757 1188.42 0 0
-214.263 -142.196 1136 0 0
-136.176 -141.719 1132.19 0 0
-62.6612 -151.007 1206.39 0 0
-256.196 -141.673 1157.09 0 0
-173.003 -138.376 1130.16 0 0
-98.4733 -142.279 1162.03 0 0
-300.115 -141.319 1180.55 0 0
-210.795 -135.752 1134.04 0 0
-133.516 -135.972 1135.89 0 0
-59.5289 -144.814 1209.75 0 0
-252.476 -135.05 1154.54 0 0
-170.732 -132.834 1135.6 0 0
-95.4559 -136.153 1163.97 0 0
-297.953 -135.349 1184.79 0 0
-208.628 -130.134 1139.14 0 0
-130.475 -129.826 1136.44 0 0
-56.5106 -138.91 1215.96 0 0
-248.077 -128.096 1148.79 0 0
-167.566 -126.579 1135.18 0 0
-92.9017 -130.672 1171.89 0 0
-293.128 -128.178 1178.41 0 0
-205.384 -123.828 1138.42 0 0
-128.137 -124.359 1143.3 0 0
-53.1711 -132.223 1215.6 0 0
-245.461 -122.076 1151.25 0 0
-164.566 -120.448 1135.89 0 0
-90.0274 -124.721 1176.18 0 0
-288.966 -121.341 1174.59 0 0
-202.093 -117.5 1137.41 0 0
-126.357 -119.379 1155.6 0 0
-50.4078 -126.987 1229.24 0 0
-242.642 -115.939 1152.8 0 0
-162.36 -114.875 1142.22 0 0
-87.6584 -119.444 1187.65 0 0
-285.026 -114.626 1171.59 0 0
-199.458 -111.547 1140.12 0 0
-123.249 -113.108 1156.07 0 0
-47.8213 -122.244 1249.45 0 0
-239.984 -109.863 1155.17 0 0
-159.282 -108.661 1142.54 0 0
-85.1577 -113.949 1198.14 0 0
-281.415 -108.064 1169.89 0 0
-196.881 -105.603 1143.25 0 0
-121.308 -107.872 1167.81 0 0
-44.6345 -116.008 1255.88 0 0
-237.01 -103.628 1156.07 0 0
-157.446 -103.259 1151.95 0 0
-82.0099 -107.566 1200 0 0
-278.171 -101.652 1169.7 0 0
-193.216 -99.0768 1140.06 0 0
-118.062 -101.442 1167.28 0 0
-41.0254 -108.675 1250.51 0 0
-232.756 -96.8526 1150.66 0 0
-154.393 -97.0215 1152.67 0 0
-78.4665 -100.668 1195.99 0 0
-275.328 -95.3803 1171.21 0 0
-189.839 -92.7167 1138.5 0 0
-114.727 -94.9415 1165.82 0 0
-336.492 -98.8619 1256.12 0 0
-230.098 -90.7543 1153.11 0 0
-151.421 -90.8271 1154.03 0 0
-75.2855 -94.2397 1197.39 0 0
-271.607 -88.8075 1168.97 0 0
-187.484 -86.8433 1143.11 0 0
-111.512 -88.5452 1165.52 0 0
-327.392 -90.4297 1234.75 0 0
-225.705 -83.9886 1146.8 0 0
-147.794 -84.2486 1150.35 0 0
-71.8776 -87.5294 1195.15 0 0
-267.776 -82.2217 1166.2 0 0
-185.876 -81.257 1152.52 0 0
-108.148 -82.0384 1163.6 0 0
-322.537 -83.2974 1229.11 0 0
-223.323 -77.9822 1150.68 0 0
-145.009 -78.1537 1153.21 0 0
-68.537 -80.9086 1193.86 0 0
-264.47 -75.8123 1165.68 0 0
-182.695 -74.9437 1152.32 0 0
-104.748 -75.5195 1161.18 0 0
-313.036 -75.1044 1205.46 0 0
-220.519 -71.8026 1152.46 0 0
-141.799 -71.8201 1152.74 0 0
-65.1458 -74.2362 1191.52 0 0
-260.537 -69.2414 1162.35 0 0
-180.158 -68.8785 1156.26 0 0
-101.513 -69.1299 1160.48 0 0
-311.238 -68.8456 1211.29 0 0
-217.583 -65.5669 1153.6 0 0
-138.52 -65.4575 1151.67 0 0
-61.8215 -67.6487 1190.23 0 0
-256.243 -62.614 1157.3 0 0
-176.459 -62.3671 1152.74 0 0
-98.2408 -62.7215 1159.29 0 0
-306.887 -62.0134 1207.19 0 0
-215.234 -59.4824 1157.92 0 0
-135.606 -59.2638 1153.67 0 0
-58.6362 -61.213 1191.61 0 0
-253.327 -56.3422 1158.43 0 0
-172.6 -55.836 1148.03 0 0
-95.1582 -56.435 1160.34 0 0
-302.442 -55.205 1202.64 0 0
-211.735 -53.0687 1156.1 0 0
-132.329 -52.9074 1152.59 0 0
-55.4402 -54.759 1192.93 0 0
-250.17 -50.0111 1158.48 0 0
-169.424 -49.549 1147.77 0 0
-92.2241 -50.221 1163.34 0 0
-296.565 -48.2093 1192.23 0 0
-207.72 -46.5567 1151.36 0 0
-128.56 -46.3833 1147.07 0 0
-52.0922 -48.1568 1190.93 0 0
-246.482 -43.5857 1156.03 0 0
-166.01 -43.2022 1145.86 0 0
-88.3959 -43.5418 1154.87 0 0
-291.001 -41.3638 1182.86 0 0
-205.061 -40.3585 1154.11 0 0
-125.8 -40.2326 1150.51 0 0
-48.6988 -41.5284 1187.57 0 0
-242.43 -37.1291 1151.79 0 0
-162.877 -36.9377 1145.86 0 0
-85.4841 -37.3353 1158.19 0 0
-286.798 -34.7797 1178.87 0 0
-200.964 -33.8903 1148.73 0 0
-122.25 -33.8307 1146.71 0 0
-45.248 -34.8784 1182.22 0 0
-239.758 -30.8939 1154.09 0 0
-159.163 -30.5617 1141.68 0 0
-82.3659 -31.0216 1158.86 0 0
-280.214 -27.9991 1164.9 0 0
-197.82 -27.6097 1148.7 0 0
-119.013 -27.5381 1145.72 0 0
-42.1035 -28.4742 1184.67 0 0
-236.749 -24.5998 1154.8 0 0
-155.383 -24.2175 1136.86 0 0
-79.4126 -24.753 1162 0 0
-277.933 -21.7012 1168.7 0 0
-194.535 -21.314 1147.84 0 0
-115.668 -21.2354 1143.61 0 0
-282.157 -16.5107 1042.65 0 0
-232.116 -18.171 1147.5 0 0
-152.064 -17.9776 1135.28 0 0
-76.3063 -18.4175 1163.06 0 0
-275.286 -15.3426 1171.03 0 0
-191.354 -15.0355 1147.59 0 0
-112.73 -15.0085 1145.52 0 0
-330.073 -12.7756 1232.16 0 0
-229.207 -11.9096 1148.64 0 0
-148.982 -11.7728 1135.44 0 0
-72.856 -12.0144 1158.75 0 0
-269.167 -8.84491 1158.47 0 0
-187.632 -8.7346 1144.02 0 0
-109.756 -8.75858 1147.16 0 0
-320.134 -5.91805 1207.38 0 0
-226.073 -5.63029 1148.67 0 0
-145.863 -5.5649 1135.33 0 0
-70.0402 -5.70836 1164.59 0 0
-265.419 -2.50624 1155.94 0 0
-184.254 -2.47703 1142.46 0 0
-106.484 -2.48404 1145.7 0 0
-312.224 0.672575 1189.81 0 0
-222.32 0.647535 1145.51 0 0
-142.34 0.63989 1131.99 0 0
-66.9212 0.658956 1165.72 0 0
-261.967 3.80885 1154.65 0 0
-180.378 3.75298 1137.71 0 0
-103.105 3.77029 1142.96 0 0
-303.819 7.05741 1169.97 0 0
-218.67 6.89354 1142.8 0 0
-139.428 6.83721 1133.46 0 0
-64.0375 7.06516 1171.25 0 0
-258.253 10.0993 1152.16 0 0
-176.625 9.93649 1133.58 0 0
-100.152 10.0359 1144.92 0 0
-299.651 13.4101 1166.19 0 0
-215.475 13.1367 1142.42 0 0
-136.208 13.0221 1132.46 0 0
-60.85 13.4713 1171.52 0 0
-254.912 16.3857 1151.29 0 0
-173.696 16.1495 1134.69 0 0
-97.3767 16.3544 1149.09 0 0
-296.442 19.784 1166.11 0 0
-210.12 19.1784 1130.41 0 0
-133.197 19.2252 1133.17 0 0
-57.5864 19.8547 1170.28 0 0
-251.288 22.6367 1149.11 0 0
-170.332 22.3182 1132.94 0 0
-94.2628 22.6429 1149.42 0 0
-291.883 26.0366 1160.65 0 0
-208.011 25.4783 1135.77 0 0
-130.172 25.4343 1133.8 0 0
-54.3201 26.2199 1168.82 0 0
-247.182 28.8062 1144.64 0 0
-166.841 28.4447 1130.28 0 0
-91.3393 28.9959 1152.18 0 0
-288.151 32.3191 1158.41 0 0
-204.932 31.6914 1135.91 0 0
-126.825 31.571 1131.59 0 0
-51.2699 32.7021 1172.13 0 0
-243.897 35.0414 1143.91 0 0
-163.903 34.6559 1131.32 0 0
-88.1865 35.2934 1152.13 0 0
-10.0023 37.3386 1218.9 0 0
-283.551 38.4575 1152.58 0 0
-201.639 37.866 1134.85 0 0
-123.977 37.8322 1133.84 0 0
-48.1346 39.1658 1173.81 0 0
31.4123 38.3524 1149.43 0 0
-325.132 42.0967 1166.12 0 0
-240.469 41.2434 1142.48 0 0
-160.064 40.651 1126.07 0 0
-85.0216 41.5843 1151.92 0 0
-6.56348 43.2957 1199.33 0 0
65.7706 37.7695 1046.25 0 0
-279.246 44.5741 1147.83 0 0
-198.784 44.125 1136.27 0 0
-121.141 44.1264 1136.3 0 0
-44.7864 45.4412 1170.16 0 0
33.3966 43.1409 1110.93 0 0
-336.182 50.6154 1217.69 0 0
-236.705 47.3609 1139.39 0 0
-157.561 46.9783 1130.19 0 0
-81.793 47.835 1150.8 0 0
-3.20215 48.5921 1169.01 0 0
67.1457 42.5484 1023.62 0 0
-277.954 51.1891 1155.51 0 0
-194.477 50.0278 1129.29 0 0
-118.132 50.38 1137.24 0 0
-41.8025 52.1058 1176.2 0 0
35.5448 48.0141 1083.83 0 0
-333.445 57.3741 1219.85 0 0
-232.536 53.3479 1134.25 0 0
-154.521 53.1741 1130.56 0 0
-78.8377 54.2572 1153.58 0 0
-0.00660948 54.0092 1148.31 0 0
68.8507 47.392 1007.62 0 0
-274.221 57.3857 1153.09 0 0
-191.996 56.3792 1132.86 0 0
-115.798 56.9782 1144.9 0 0
-38.9056 59.0186 1185.9 0 0
37.6772 52.7763 1060.47 0 0
-325.643 63.176 1203.34 0 0
-229.335 59.5225 1133.75 0 0
-151.852 59.5195 1133.7 0 0
-75.6841 60.5634 1153.58 0 0
3.08133 59.3075 1129.66 0 0
70.8691 52.3569 997.266 0 0
-271.176 63.7147 1153.54 0 0
-189.726 62.8464 1137.82 0 0
-112.385 63.0782 1142.02 0 0
-35.2758 64.7886 1172.99 0 0
39.9292 57.6402 1043.57 0 0
-318.822 68.9904 1190.16 0 0
-226.473 65.7895 1134.94 0 0
-148.509 65.6094 1131.83 0 0
-72.6658 66.9942 1155.72 0 0
6.06064 64.3312 1109.78 0 0
72.8787 57.2461 987.557 0 0
-267.154 69.7939 1149.8 0 0
-186.844 69.151 1139.21 0 0
-109.151 69.2498 1140.84 0 0
-31.8051 70.6141 1163.32 0 0
42.253 62.5625 1030.67 0 0
-314.895 75.3357 1187.62 0 0
-224.067 72.2184 1138.48 0 0
-145.569 71.8732 1133.04 0 0
-70.0604 73.8964 1164.93 0 0
8.96744 69.4173 1094.32 0 0
74.8846 62.0701 978.496 0 0
-263.35 75.8894 1146.93 0 0
-183.596 75.3239 1138.38 0 0
-106.678 75.9463 1147.79 0 0
-28.3593 76.2587 1152.51 0 0
44.6374 67.542 1020.77 0 0
-309.669 81.3084 1180.07 0 0
-221.093 78.4912 1139.19 0 0
-143.018 78.3667 1137.38 0 0
-66.637 79.978 1160.77 0 0
11.8135 74.4846 1081.04 0 0
76.9227 66.8661 970.465 0 0
-260.181 82.1488 1146.78 0 0
-180.312 81.4695 1137.29 0 0
-104.291 82.8168 1156.1 0 0
-24.9938 81.8543 1142.67 0 0
46.9974 72.4591 1011.51 0 0
-303.951 87.0459 1170.48 0 0
-218.199 84.8045 1140.34 0 0
-140.242 84.7857 1140.08 0 0
-63.7053 86.6518 1165.18 0 0
14.5802 79.3695 1067.25 0 0
79.204 71.8346 965.935 0 0
-256.792 88.3303 1145.64 0 0
-177.497 87.8321 1139.18 0 0
-101.076 89.0889 1155.48 0 0
-21.6445 87.191 1130.86 0 0
49.264 77.2079 1001.38 0 0
-297.66 92.484 1158.44 0 0
-214.981 90.9958 1139.8 0 0
-137.156 91.0387 1140.34 0 0
-60.7408 93.3604 1169.42 0 0
17.2928 84.2074 1054.77 0 0
81.2766 76.5803 959.235 0 0
-340.84 97.1273 1176.33 0 0
-253.388 94.492 1144.41 0 0
-174.171 93.9456 1137.79 0 0
-98.0528 95.5375 1157.07 0 0
-18.3829 92.5155 1120.47 0 0
51.496 81.8791 991.654 0 0
-293.967 98.6403 1156.37 0 0
-211.629 97.1185 1138.53 0 0
-133.98 97.2295 1139.83 0 0
-57.1242 99.0253 1160.88 0 0
19.939 88.9171 1042.38 0 0
83.3935 81.3318 953.461 0 0
-249.168 100.309 1139.42 0 0
-171.491 100.418 1140.65 0 0
-95.2778 102.279 1161.8 0 0
-15.1902 97.8044 1110.97 0 0
53.5027 86.1665 978.775 0 0
-289.027 104.32 1149.3 0 0
-208.067 103.12 1136.07 0 0
-131.612 104.053 1146.35 0 0
-53.6738 104.83 1154.92 0 0
22.5618 93.6753 1032.02 0 0
85.1712 85.7104 944.275 0 0
-336.903 110.809 1185.1 0 0
-244.839 106.012 1133.79 0 0
-167.601 106.165 1135.43 0 0
-92.3734 108.951 1165.22 0 0
-12.02 102.738 1098.78 0 0
55.7288 90.7854 970.947 0 0
-284.822 110.192 1145.02 0 0
-204.078 108.859 1131.18 0 0
-128.77 110.569 1148.95 0 0
-50.0347 110.083 1143.9 0 0
25.1263 98.3136 1021.6 0 0
87.5776 90.6917 942.394 0 0
-340.712 119.765 1210.13 0 0
-241.733 112.207 1133.76 0 0
-164.838 112.604 1137.77 0 0
-89.6483 115.915 1171.23 0 0
-8.94954 107.936 1090.6 0 0
57.8856 95.2751 962.678 0 0
-281.16 116.231 1142.86 0 0
-201.025 115.065 1131.39 0 0
-125.921 117.122 1151.61 0 0
-46.5218 115.379 1134.48 0 0
27.7814 103.387 1016.57 0 0
89.7166 95.3792 937.827 0 0
-333.694 124.991 1196.83 0 0
-238.094 118.137 1131.19 0 0
-161.69 118.796 1137.5 0 0
-86.7026 122.68 1174.7 0 0
-5.93162 113.195 1083.87 0 0
59.6831 99.1525 949.413 0 0
-277.479 122.234 1140.57 0 0
-197.788 121.162 1130.57 0 0
-122.846 123.491 1152.3 0 0
-43.1888 120.932 1128.42 0 0
30.3663 108.254 1010.12 0 0
92.1395 100.353 936.398 0 0
-326.047 129.792 1180.98 0 0
-233.821 123.697 1125.51 0 0
-159.357 125.627 1143.08 0 0
-83.3625 128.903 1172.88 0 0
-2.94547 118.179 1075.31 0 0
62.1601 104.145 947.612 0 0
-272.693 127.688 1133.63 0 0
-194.977 127.525 1132.19 0 0
-119.763 129.862 1152.94 0 0
-39.7428 125.955 1118.24 0 0
33.0443 113.491 1007.59 0 0
94.106 104.812 930.534 0 0
-320.768 135.383 1173.48 0 0
-231.502 130.276 1129.21 0 0
-155.411 131.183 1137.07 0 0
-79.7057 134.554 1166.28 0 0
-0.00613815 123.033 1066.42 0 0
64.1512 108.314 938.843 0 0
-268.43 133.307 1128.74 0 0
-191.935 133.752 1132.5 0 0
-116.933 136.541 1156.12 0 0
-36.5233 131.481 1113.28 0 0
35.6525 118.514 1003.48 0 0
95.5546 108.654 919.992 0 0
-316.173 141.179 1168.35 0 0
-227.999 136.2 1127.15 0 0
-152.742 137.794 1140.34 0 0
-75.8527 139.705 1156.15 0 0
2.89526 128.26 1061.44 0 0
66.3483 112.819 933.648 0 0
-263.763 138.646 1122.01 0 0
-187.923 139.264 1127.01 0 0
-113.818 142.918 1156.58 0 0
-33.2676 136.694 1106.21 0 0
38.0804 122.982 995.245 0 0
98.1175 113.739 920.443 0 0
-309.935 146.131 1156.98 0 0
-223.509 141.471 1120.09 0 0
-150.406 144.78 1146.29 0 0
-72.3583 145.354 1150.83 0 0
5.75645 133.134 1054.08 0 0
68.8102 117.768 932.427 0 0
-260.263 144.54 1120.14 0 0
-184.139 144.872 1122.72 0 0
-110.812 149.45 1158.2 0 0
-30.1548 142.321 1102.95 0 0
40.6068 127.813 990.514 0 0
-304.719 151.435 1149.24 0 0
-220.171 147.408 1118.68 0 0
-147.686 151.471 1149.51 0 0
-68.6882 150.496 1142.11 0 0
8.60371 138.349 1049.93 0 0
71.3296 122.815 932.044 0 0
-256.932 150.506 1118.97 0 0
-181.463 151.337 1125.15 0 0
-107.265 155.231 1154.11 0 0
-27.1216 148.25 1102.2 0 0
42.5874 130.991 973.889 0 0
-299.772 156.773 1142.36 0 0
-216.359 152.991 1114.8 0 0
-144.48 157.685 1149 0 0
-65.1083 155.645 1134.14 0 0
11.4043 143.219 1043.59 0 0
73.6819 127.573 929.579 0 0
-349.793 165.847 1184.87 0 0
-253.121 156.159 1115.66 0 0
-178.552 157.634 1126.2 0 0
-104.338 161.893 1156.62 0 0
-23.9528 153.278 1095.07 0 0
44.6641 134.552 961.293 0 0
-295.117 162.177 1136.46 0 0
-213.441 159.182 1115.47 0 0
-140.312 162.776 1140.66 0 0
-61.9594 161.718 1133.24 0 0
14.1973 148.302 1039.23 0 0
75.5228 131.436 921.041 0 0
-337.954 168.048 1155.47 0 0
-248.634 161.325 1109.24 0 0
-175.247 163.579 1124.74 0 0
-101.316 168.449 1158.23 0 0
-20.8986 158.802 1091.89 0 0
46.8127 138.391 951.554 0 0
-290.461 167.496 1130.43 0 0
-209.741 164.769 1112.02 0 0
-137.413 169.281 1142.48 0 0
-58.7366 167.556 1130.83 0 0
17.0542 154.13 1040.22 0 0
77.551 135.615 915.266 0 0
-329.235 171.469 1136.28 0 0
-245.305 167.187 1107.9 0 0
-171.943 169.501 1123.24 0 0
-98.4523 175.318 1161.79 0 0
-17.8485 164.169 1087.9 0 0
48.597 141.22 935.827 0 0
-285.641 172.63 1123.62 0 0
-206.506 170.687 1110.97 0 0
-134.089 175.264 1140.76 0 0
-55.4204 173.036 1126.26 0 0
19.8762 159.645 1039.1 0 0
79.9014 140.353 913.535 0 0
-320.98 174.875 1118.33 0 0
-241.966 173.021 1106.48 0 0
-168.929 175.7 1123.61 0 0
-95.372 181.851 1162.95 0 0
-14.8439 169.763 1085.64 0 0
51.2051 146.48 936.744 0 0
-280.405 177.403 1115.01 0 0
-203.207 176.532 1109.54 0 0
-130.811 181.279 1139.37 0 0
-52.1905 178.675 1123 0 0
22.6133 164.574 1034.38 0 0
82.0378 144.711 909.535 0 0
-333.743 189.995 1173.98 0 0
-238.435 178.691 1104.14 0 0
-165.338 181.273 1120.09 0 0
-92.0959 188.011 1161.72 0 0
-11.8404 175.166 1082.36 0 0
53.6548 151.288 934.813 0 0
-276.667 183.042 1112.24 0 0
-199.89 182.339 1107.96 0 0
-128.05 188.027 1142.53 0 0
-49.1159 184.795 1122.89 0 0
25.4709 170.431 1035.61 0 0
84.0818 148.9 904.777 0 0
-333.022 197.891 1182.82 0 0
-234.5 184.007 1099.84 0 0
-162.474 187.624 1121.45 0 0
-88.6875 193.853 1158.68 0 0
-8.88001 181.045 1082.13 0 0
56.2823 156.6 936.014 0 0
-272.992 188.684 1109.66 0 0
-195.761 187.343 1101.77 0 0
-124.935 194.285 1142.6 0 0
-45.889 190.28 1119.05 0 0
28.4151 176.799 1039.76 0 0
86.1583 153.141 900.631 0 0
-325.651 201.793 1167.98 0 0
-231.125 189.718 1098.09 0 0
-159.387 193.73 1121.31 0 0
-85.4351 199.987 1157.53 0 0
-5.92622 187.092 1082.89 0 0
59.1489 162.563 940.916 0 0
-269.604 194.495 1108.2 0 0
-192 192.614 1097.49 0 0
-121.897 200.672 1143.4 0 0
-42.7811 196.173 1117.76 0 0
31.3932 183.276 1044.28 0 0
88.3903 157.655 898.295 0 0
-317.503 204.98 1150.03 0 0
-227.901 195.53 1097.02 0 0
-155.805 199.198 1117.6 0 0
-82.0668 205.803 1154.65 0 0
-2.9613 192.691 1081.09 0 0
60.3387 163.952 919.845 0 0
-265.907 200.05 1105.42 0 0
-189.401 199.035 1099.81 0 0
-118.7 206.797 1142.71 0 0
-39.7184 202.246 1117.56 0 0
34.4797 190.266 1051.36 0 0
90.3516 161.682 893.41 0 0
-309.832 208.223 1133.47 0 0
-224.384 201.063 1094.49 0 0
-152.525 205.006 1115.95 0 0
-78.8984 212.082 1154.47 0 0
-0.0062348 198.992 1083.22 0 0
62.1181 167.004 909.089 0 0
-262.52 205.807 1103.88 0 0
-186.741 205.429 1101.86 0 0
-116.115 214.038 1148.03 0 0
-36.6406 208.225 1116.85 0 0
37.6665 197.656 1060.17 0 0
92.4068 165.872 889.685 0 0
-303.844 212.4 1122.79 0 0
-221.167 206.836 1093.37 0 0
-149.561 211.229 1116.6 0 0
-75.7865 218.52 1155.14 0 0
2.96318 205.505 1086.34 0 0
64.0501 170.502 901.308 0 0
-258.633 211.132 1100.19 0 0
-183.563 211.261 1100.86 0 0
-113.335 221.012 1151.67 0 0
-33.6401 214.665 1118.6 0 0
39.611 198.67 1035.25 0 0
94.4902 170.108 886.416 0 0
-299.47 217.59 1117.92 0 0
-217.853 212.495 1091.74 0 0
-146.812 217.782 1118.9 0 0
-72.6099 224.776 1154.83 0 0
5.94404 211.851 1088.43 0 0
66.0677 174.253 895.264 0 0
-254.955 216.576 1097.3 0 0
-179.837 216.417 1096.49 0 0
-110.718 228.403 1157.22 0 0
-30.6032 220.93 1119.35 0 0
39.8356 191.787 971.703 0 0
96.7127 174.592 884.582 0 0
-295.701 223.164 1115.23 0 0
-214.619 218.21 1090.48 0 0
-143.617 223.686 1117.84 0 0
-69.4152 230.963 1154.2 0 0
8.92876 218.035 1089.6 0 0
68.1316 178.145 890.256 0 0
-251.293 221.991 1094.42 0 0
-176.751 222.3 1095.94 0 0
-107.792 235.246 1159.77 0 0
-27.6208 227.685 1122.49 0 0
41.902 194.364 958.217 0 0
98.4819 178.254 878.793 0 0
-291.595 228.432 1111.2 0 0
-211.36 223.877 1089.04 0 0
-140.593 229.849 1118.09 0 0
-66.4174 237.835 1156.94 0 0
11.9503 224.804 1093.55 0 0
70.357 182.473 887.631 0 0
-332.859 234.867 1127.51 0 0
-247.988 227.686 1093.03 0 0
-173.216 227.582 1092.54 0 0
-105.169 242.852 1165.84 0 0
-24.556 233.855 1122.65 0 0
44.8353 201.01 964.976 0 0
100.708 182.739 877.264 0 0
-287.616 233.742 1107.57 0 0
-207.884 229.28 1086.43 0 0
-137.853 236.504 1120.66 0 0
-63.2922 244.304 1157.62 0 0
15.0239 232.087 1099.73 0 0
72.4059 186.354 883.029 0 0
-330.226 241.359 1129.04 0 0
-244.572 233.253 1091.12 0 0
-170.582 234.038 1094.8 0 0
-103.417 252.73 1182.23 0 0
-21.6373 241.668 1130.49 0 0
47.2523 205.327 960.491 0 0
103.035 187.405 876.657 0 0
-283.973 239.278 1105.18 0 0
-204.397 234.625 1083.69 0 0
-134.933 242.888 1121.85 0 0
-60.2171 251.004 1159.34 0 0
18.1868 240.17 1109.3 0 0
74.4612 190.266 878.799 0 0
-240.955 238.589 1088.26 0 0
-167.73 240.225 1095.72 0 0
-101.307 262.096 1195.48 0 0
-18.6416 249.11 1136.24 0 0
48.2442 203.681 929.034 0 0
105.3 191.958 875.564 0 0
-280.491 244.917 1103.36 0 0
-201.246 240.324 1082.67 0 0
-131.858 249.007 1121.79 0 0
-57.3758 258.82 1166 0 0
76.5871 194.369 875.641 0 0
-237.697 244.247 1086.96 0 0
-164.938 246.518 1097.07 0 0
-98.7725 270.64 1204.41 0 0
-15.6533 257.253 1144.84 0 0
50.0718 205.834 916.011 0 0
107.01 195.497 870.01 0 0
-277.44 250.917 1103.22 0 0
-197.988 245.872 1081.04 0 0
-128.848 255.249 1122.27 0 0
-54.3608 266.037 1169.7 0 0
23.6608 246.157 1082.29 0 0
78.6596 198.346 872.082 0 0
-320.72 259.676 1128.17 0 0
-233.882 249.29 1083.05 0 0
-162.017 252.637 1097.59 0 0
-96.1214 279.086 1212.5 0 0
51.8244 207.829 902.922 0 0
108.941 199.436 866.457 0 0
-273.445 256.031 1099.28 0 0
-195.079 251.842 1081.3 0 0
-125.924 261.685 1123.56 0 0
-51.7118 275.351 1182.24 0 0
24.6177 233.12 1000.92 0 0
80.7733 202.437 869.176 0 0
-323.33 270.609 1148.4 0 0
-230.957 255.251 1083.22 0 0
-158.974 258.568 1097.3 0 0
-93.6361 288.267 1223.33 0 0
53.8276 210.943 895.191 0 0
-269.572 261.199 1095.76 0 0
-191.977 257.557 1080.47 0 0
-123.173 268.524 1126.48 0 0
-49.4348 287.363 1205.51 0 0
26.658 232.525 975.464 0 0
82.9086 206.589 866.661 0 0
-320.032 276.75 1147.83 0 0
-227.893 261.055 1082.73 0 0
-155.968 264.555 1097.25 0 0
-92.3235 301.59 1250.85 0 0
55.8351 214.151 888.2 0 0
-266.634 267.248 1095.99 0 0
-189.258 263.79 1081.81 0 0
-120.436 275.465 1129.69 0 0
29.1882 236.754 970.935 0 0
85.0268 210.706 864.113 0 0
-316.41 282.592 1146.07 0 0
-224.361 266.294 1079.97 0 0
57.8576 217.484 882.021 0 0
-262.973 272.549 1093.23 0 0
-186.53 270.036 1083.14 0 0
-117.633 282.324 1132.43 0 0
31.1643 236.908 950.265 0 0
86.974 214.407 860.012 0 0
-313.054 288.651 1145.25 0 0
-221.195 271.934 1078.93 0 0
59.8339 220.702 875.66 0 0
-259.628 278.143 1091.72 0 0
-183.34 275.612 1081.79 0 0
-115.005 289.694 1137.06 0 0
35.2342 252.661 991.706 0 0
88.8082 217.842 855.038 0 0
-306.172 291.342 1131.39 0 0
-218.006 277.528 1077.75 0 0
61.8523 224.13 870.38 0 0
-256.7 284.175 1091.97 0 0
-180.083 281.057 1079.99 0 0
-112.282 296.927 1140.97 0 0
36.975 251.486 966.356 0 0
91.122 222.459 854.818 0 0
-301.475 295.952 1125.4 0 0
-215.569 284.091 1080.3 0 0
63.7463 227.159 863.807 0 0
-253.466 289.859 1090.89 0 0
-176.779 286.392 1077.85 0 0
-109.709 304.682 1146.68 0 0
40.0507 259.583 976.948 0 0
92.9267 225.84 849.953 0 0
-298.284 301.988 1124.97 0 0
-212.175 289.394 1078.05 0 0
65.5529 229.937 856.561 0 0
-250.028 295.285 1088.91 0 0
-173.839 292.295 1077.88 0 0
41.6348 258.188 952.107 0 0
94.9118 229.668 846.936 0 0
-293.83 306.699 1119.71 0 0
-209.283 295.365 1078.34 0 0
67.7561 234.142 854.818 0 0
-246.652 300.749 1087.14 0 0
43.1667 257.018 929.065 0 0
97.0054 233.764 845.006 0 0
-288.757 310.655 1111.96 0 0
-205.657 300.27 1074.79 0 0
69.638 237.266 849.273 0 0
-243.402 306.342 1085.9 0 0
44.4833 255.084 904.205 0 0
99.1799 238.059 843.856 0 0
-284.839 315.761 1108.55 0 0
-202.557 305.9 1073.93 0 0
71.6389 240.831 845.49 0 0
-240.277 312.076 1085.2 0 0
46.1488 255.564 888.683 0 0
101.006 241.523 839.858 0 0
-281.411 321.367 1106.98 0 0
-199.451 311.505 1073.01 0 0
-129.366 319.508 1100.58 0 0
19.1168 290.135 999.401 0 0
73.5456 244.111 840.867 0 0
-237.061 317.674 1084.05 0 0
48.08 257.752 879.573 0 0
103.134 245.716 838.499 0 0
-277.382 326.238 1102.99 0 0
-196.426 317.224 1072.51 0 0
-126.631 326.23 1102.96 0 0
19.9785 270.298 913.861 0 0
75.5562 247.764 837.675 0 0
-233.582 322.888 1081.67 0 0
50.0768 260.442 872.475 0 0
104.808 248.831 833.58 0 0
-274.12 331.969 1102 0 0
-192.986 322.238 1069.69 0 0
-123.913 333.057 1105.61 0 0
22.7287 278.383 924.114 0 0
77.6869 251.828 835.964 0 0
-230.393 328.468 1080.57 0 0
51.9218 262.482 863.497 0 0
106.897 252.941 832.108 0 0
-271.12 338.009 1102.05 0 0
-189.949 327.89 1069.06 0 0
79.7459 255.674 833.602 0 0
-314.706 349.276 1128.72 0 0
-227.221 334.055 1079.54 0 0
53.7371 264.52 854.827 0 0
109.18 257.51 832.172 0 0
-267.862 343.719 1101.04 0 0
-187.189 334.024 1069.98 0 0
81.7244 259.279 830.551 0 0
-302.963 345.571 1097.36 0 0
-224.062 339.642 1078.54 0 0
55.7906 267.834 850.51 0 0
110.742 260.383 826.849 0 0
-350.905 360.857 1136.04 0 0
-264.583 349.382 1099.92 0 0
-184.287 339.916 1070.12 0 0
30.0186 290.748 915.329 0 0
83.6406 262.707 827.051 0 0
-293.928 344.496 1075.28 0 0
-220.902 345.207 1077.5 0 0
57.8862 271.409 847.156 0 0
112.898 264.659 826.087 0 0
-261.189 354.869 1098.29 0 0
-181.326 345.698 1069.91 0 0
32.5588 296.099 916.404 0 0
85.4527 265.833 822.731 0 0
-300.201 361.468 1109.33 0 0
-217.271 349.992 1074.11 0 0
59.8543 274.447 842.266 0 0
114.775 268.284 823.353 0 0
-257.737 360.244 1096.38 0 0
-177.641 350.048 1065.35 0 0
35.6455 306.105 931.609 0 0
87.33 269.185 819.245 0 0
-213.836 355.037 1071.61 0 0
61.5433 276.298 833.955 0 0
116.799 272.257 821.758 0 0
-254.253 365.538 1094.28 0 0
-174.664 355.74 1064.95 0 0
37.3461 304.306 910.977 0 0
89.3696 273.054 817.419 0 0
-293.628 372.951 1107.41 0 0
-210.941 360.954 1071.79 0 0
63.5889 279.828 830.899 0 0
118.821 276.23 820.215 0 0
-251.489 371.856 1095.27 0 0
39.9838 310.432 914.352 0 0
91.2155 276.346 813.952 0 0
-279.57 364.618 1065.37 0 0
-207.679 366.226 1070.07 0 0
65.269 281.818 823.44 0 0
120.623 279.692 817.228 0 0
-247.563 376.425 1091.16 0 0
40.4873 300.612 871.396 0 0
93.1658 279.97 811.56 0 0
-279.048 373.642 1074.58 0 0
-204.053 370.803 1066.41 0 0
67.3167 285.458 820.964 0 0
-244.687 382.557 1091.64 0 0
44.2347 315.103 899.153 0 0
95.1573 283.731 809.631 0 0
-289.968 398.564 1128.51 0 0
-200.958 376.295 1065.45 0 0
69.3969 289.263 819.03 0 0
-241.062 387.494 1088.74 0 0
46.4016 318.025 893.551 0 0
97.0877 287.32 807.28 0 0
-286.236 403.821 1125.96 0 0
-197.846 381.735 1064.38 0 0
71.1882 291.906 813.914 0 0
-236.96 391.585 1083.59 0 0
48.4446 320.269 886.243 0 0
99.0987 291.159 805.69 0 0
-274.596 397.579 1091.91 0 0
-194.883 387.446 1064.09 0 0
73.0205 294.771 809.563 0 0
-233.805 397.181 1082.7 0 0
50.435 322.353 878.716 0 0
100.665 293.709 800.635 0 0
-277.977 413.006 1117.5 0 0
-191.606 392.508 1062.04 0 0
-122.527 404.04 1093.25 0 0
24.4602 367.551 994.514 0 0
75.0543 298.485 807.635 0 0
-230.382 402.291 1080.52 0 0
50.9878 315.707 847.963 0 0
102.514 297.1 797.986 0 0
-276.722 421.858 1124.82 0 0
-188.662 398.229 1061.82 0 0
76.768 300.964 802.472 0 0
-227.083 407.578 1078.88 0 0
52.1231 313.236 829.152 0 0
104.572 301.108 797.05 0 0
-272.921 426.872 1121.84 0 0
-185.909 404.358 1062.67 0 0
25.9375 328.306 862.801 0 0
78.6831 304.274 799.643 0 0
-223.085 411.541 1073.83 0 0
53.7723 314.163 819.743 0 0
106.567 304.94 795.679 0 0
-268.713 431.172 1117.09 0 0
-182.612 409.288 1060.39 0 0
29.1609 343.203 889.175 0 0
80.52 307.314 796.193 0 0
-219.793 416.735 1072.09 0 0
56.0975 319.125 820.979 0 0
107.908 306.919 789.578 0 0
-264.21 434.894 1110.99 0 0
-179.804 415.295 1060.93 0 0
31.0911 342.552 875.094 0 0
82.2302 309.91 791.705 0 0
-216.251 421.404 1069.07 0 0
57.8713 321.004 814.361 0 0
109.893 310.745 788.334 0 0
-260.776 440.297 1109.3 0 0
-176.918 421.128 1061.01 0 0
84.3266 313.986 791.07 0 0
-212.995 426.58 1067.39 0 0
59.3756 321.548 804.582 0 0
111.7 314.075 785.882 0 0
-255.594 442.638 1100.05 0 0
-173.978 426.83 1060.76 0 0
86.2586 317.463 788.964 0 0
-209.73 431.701 1065.63 0 0
61.0263 323.043 797.414 0 0
113.517 317.446 783.598 0 0
-251.917 447.461 1097.13 0 0
-170.87 432.102 1059.47 0 0
37.6966 351.583 862.047 0 0
87.8409 319.686 783.839 0 0
-207.005 437.924 1066.6 0 0
62.8162 325.383 792.496 0 0
114.923 319.684 778.616 0 0
-247.962 451.718 1092.92 0 0
38.7442 344.654 833.88 0 0
89.8551 323.509 782.721 0 0
-203.697 442.901 1064.55 0 0
64.8874 329.233 791.337 0 0
116.901 323.524 777.614 0 0
-244.106 456.071 1089.05 0 0
42.2791 359.9 859.4 0 0
91.7423 326.889 780.574 0 0
-200.242 447.503 1061.66 0 0
66.6943 331.787 787.133 0 0
118.822 327.212 776.278 0 0
-240.824 461.438 1087.66 0 0
44.2355 361.39 851.838 0 0
93.3401 329.266 776.119 0 0
-197.515 453.709 1062.6 0 0
68.4098 333.962 782.147 0 0
120.256 329.571 771.864 0 0
-237.484 466.664 1085.99 0 0
48.0054 377.378 878.208 0 0
94.9726 331.801 772.143 0 0
-194.521 459.307 1062.11 0 0
70.0567 335.884 776.704 0 0
121.923 332.582 769.068 0 0
-234.359 472.285 1085.26 0 0
50.626 383.848 882.043 0 0
96.6932 334.672 769.042 0 0
-191.675 465.252 1062.43 0 0
72.2873 340.636 777.86 0 0
123.795 336.161 767.641 0 0
-230.829 477.054 1082.62 0 0
53.2096 389.935 884.913 0 0
98.388 337.479 765.871 0 0
-188.762 471.039 1062.38 0 0
73.4581 340.461 767.874 0 0
126.343 341.575 770.386 0 0
-227.478 482.143 1080.76 0 0
53.7081 381.145 854.366 0 0
100.518 341.789 766.146 0 0
-185.525 475.992 1060.47 0 0
75.7148 345.378 769.476 0 0
129.69 349.127 777.829 0 0
-224.102 487.134 1078.73 0 0
55.5982 382.751 847.578 0 0
103.346 348.453 771.628 0 0
-269.732 509.434 1121.32 0 0
-182.842 482.357 1061.72 0 0
78.7986 353.989 779.171 0 0
-220.916 492.502 1077.57 0 0
57.2091 382.662 837.247 0 0
105.322 352.227 770.656 0 0
-268.592 519.287 1129.42 0 0
-180.196 488.859 1063.24 0 0
81.05 358.787 780.343 0 0
690.408 617.726 1343.52 0 0
-218.209 498.938 1078.75 0 0
58.1735 378.621 818.614 0 0
106.957 354.875 767.272 0 0
-230.786 456.75 981.732 0 0
-177.162 494.313 1062.47 0 0
82.6846 360.878 775.667 0 0
-214.042 501.979 1072.64 0 0
59.2856 375.959 803.362 0 0
108.732 358.008 765.003 0 0
-173.764 498.705 1059.46 0 0
84.2449 362.708 770.546 0 0
-210.985 507.54 1072.01 0 0
61.8788 382.809 808.553 0 0
-260.453 540.137 1134.31 0 0
85.9022 365.013 766.54 0 0
-208.586 514.712 1074.74 0 0
64.3397 388.744 811.717 0 0
-205.195 519.442 1072.38 0 0
66.834 394.809 815.077 0 0
-252.653 549.066 1127.18 0 0
-202.626 526.243 1074.3 0 0
68.297 394.843 806.049 0 0
-246.741 548.93 1114.39 0 0
-198.878 529.954 1069.93 0 0
69.6611 394.497 796.454 0 0
-236.658 538.995 1082.21 0 0
-195.774 535.313 1068.95 0 0
71.1754 395.171 789.107 0 0
-233.664 544.828 1082.05 0 0
-193.772 543.739 1074.05 0 0
72.9696 397.509 785.203 0 0
-231.381 552.353 1085.21 0 0
-190.901 549.798 1074.42 0 0
75.4586 403.635 788.785 0 0
-227.451 555.93 1080.63 0 0
77.4001 406.819 786.604 0 0
-224.162 560.998 1079.01 0 0
78.739 406.927 778.583 0 0
-220.205 564.316 1074.1 0 0
80.0418 406.986 770.636 0 0
-217.95 571.974 1077.47 0 0
-270.371 613.686 1150.12 0 0
80.8354 404.628 758.32 0 0
-215.327 578.73 1079.08 0 0
-260.124 603.493 1119.55 0 0
82.0567 404.575 750.531 0 0
-212.207 584.162 1078.22 0 0
-254.135 602.669 1106.79 0 0
83.3764 405.122 744.001 0 0
-207.714 585.697 1070.25 0 0
-249.215 604.125 1098.44 0 0
84.7678 406.112 738.406 0 0
-205.254 592.894 1072.69 0 0
69.7765 470.342 850.962 0 0
-244.459 605.786 1090.62 0 0
86.2224 407.484 733.609 0 0
-203.258 601.527 1077.65 0 0
69.8392 460.084 824.25 0 0
108.293 394.911 707.491 0 0
-241.541 611.908 1090.9 0 0
87.99 410.387 731.633 0 0
712.671 753.848 1343.95 0 0
68.8792 443.884 787.514 0 0
109.659 396.725 703.846 0 0
-237.319 614.66 1085.23 0 0
89.3555 411.465 726.476 0 0
131.5 389.265 687.28 0 0
69.1577 436.365 766.737 0 0
111.062 398.703 700.561 0 0
-233.843 619.243 1082.87 0 0
90.9304 413.568 723.207 0 0
132.052 389.113 680.442 0 0
70.6729 436.966 760.489 0 0
113.194 403.304 701.903 0 0
-229.901 622.505 1078.27 0 0
92.1775 414.242 717.527 0 0
134.35 394.117 682.668 0 0
-286.795 676.206 1165.77 0 0
73.0326 442.827 763.425 0 0
114.613 405.376 698.861 0 0
158.769 396.384 683.358 0 0
-227.145 628.93 1079.18 0 0
93.4965 415.312 712.631 0 0
135.934 397.026 681.255 0 0
194.078 422.242 724.523 0 0
-273.074 657.223 1122.46 0 0
74.4445 442.985 756.567 0 0
116.545 409.273 698.992 0 0
160.853 400.659 684.279 0 0
-222.738 630.703 1072.16 0 0
95.3486 418.787 711.916 0 0
137.094 398.708 677.784 0 0
185.6 403.466 685.872 0 0
-264.596 650.07 1099.97 0 0
76.0335 444.322 751.831 0 0
117.302 409.07 692.182 0 0
163.806 407.089 688.83 0 0
-219.86 636.716 1072.42 0 0
96.7524 420.323 707.948 0 0
138.242 400.372 674.345 0 0
179.619 390.152 657.132 0 0
-262.649 658.74 1104.43 0 0
76.4846 439.221 736.387 0 0
119.092 412.503 691.592 0 0
164.116 406.956 682.292 0 0
-218.157 646.219 1078.49 0 0
98.2695 422.397 704.95 0 0
139.596 402.649 671.992 0 0
176.152 382.321 638.067 0 0
-258.306 661.388 1098.8 0 0
77.3893 436.989 725.992 0 0
120.33 414.036 687.858 0 0
163.543 404.652 672.269 0 0
692.641 807.016 1340.74 0 0
-215.616 653.346 1080.53 0 0
99.8126 424.618 702.25 0 0
140.754 404.37 668.763 0 0
175.748 381.151 630.363 0 0
650.486 812.959 1344.5 0 0
-254.511 665.325 1095.39 0 0
78.7284 437.373 720.089 0 0
122.294 418.084 688.332 0 0
161.584 398.953 656.836 0 0
