ply
format ascii 1.0
element vertex 1192
property float x
property float y
property float z
property float u
property float v
end_header
-6.45038 -166.867 1178.67 953.55 433.133
40.3485 -160.778 1135.65 1000.35 439.222
86.9867 -160.916 1136.63 1046.99 439.084
-12.9875 -164.832 1187.21 947.013 435.168
34.4364 -159.043 1145.51 994.436 440.957
80.6443 -157.558 1134.82 1040.64 442.442
-19.3773 -160.753 1181.08 940.623 439.247
28.1761 -155.923 1145.6 988.176 444.077
74.0645 -153.676 1129.09 1034.06 446.324
130.719 -166.904 1226.28 1090.72 433.096
-26.0416 -158.79 1190.57 933.958 441.21
21.9127 -152.787 1145.56 981.913 447.213
67.4566 -149.625 1121.85 1027.46 450.375
117.592 -155.081 1162.76 1077.59 444.919
-33.0128 -157.745 1207.49 926.987 442.255
15.5577 -148.774 1138.81 975.558 451.226
61.4197 -146.788 1123.61 1021.42 453.212
110.069 -150.31 1150.57 1070.07 449.69
-39.9207 -155.641 1216.84 920.079 444.359
9.4063 -146.82 1147.87 969.406 453.18
55.1785 -143.46 1121.6 1015.18 456.54
102.606 -145.502 1137.57 1062.61 454.498
-46.4563 -151.933 1213.79 913.544 448.067
3.1818 -146.012 1166.49 963.182 453.988
48.9175 -140.024 1118.65 1008.92 459.976
95.0117 -140.361 1121.34 1055.01 459.639
-54.103 -151.445 1236.9 905.897 448.555
-3.2242 -144.119 1177.06 956.776 455.881
43.1677 -138.137 1128.21 1003.17 461.863
88.665 -136.961 1118.61 1048.66 463.039
-61.973 -150.76 1259.42 898.027 449.24
-9.50028 -138.585 1157.72 950.5 461.415
37.2481 -135.958 1135.77 997.248 464.042
82.3883 -133.642 1116.42 1042.39 466.358
135.539 -141.333 1180.67 1095.54 458.667
-16.0889 -137.641 1176.7 943.911 462.359
31.2443 -133.733 1143.28 991.244 466.267
76.302 -130.619 1116.67 1036.3 469.381
125.532 -134.305 1148.18 1085.53 465.695
-22.5134 -134.375 1176.26 937.487 465.625
24.8259 -129.729 1135.59 984.826 470.271
70.0017 -127.211 1113.56 1030 472.789
118.482 -130.316 1140.73 1078.48 469.684
-29.2836 -132.699 1190.07 930.716 467.301
18.7328 -127.406 1142.6 978.733 472.594
63.9826 -124.301 1114.75 1023.98 475.699
111.142 -125.947 1129.52 1071.14 474.053
-35.7549 -129.321 1188.92 924.245 470.679
12.4064 -123.488 1135.29 972.406 476.512
57.6962 -120.851 1111.05 1017.7 479.149
103.637 -121.303 1115.2 1063.64 478.697
-42.4249 -126.579 1193.71 917.575 473.421
6.25973 -121.545 1146.24 966.26 478.455
52.1272 -118.967 1121.92 1012.13 481.033
97.2689 -117.926 1112.1 1057.27 482.074
-48.69 -122.66 1187.35 911.31 477.34
-0.00663393 -119.065 1152.56 959.993 480.935
45.9304 -115.74 1120.37 1005.93 484.26
91.3473 -115.085 1114.03 1051.35 484.915
-56.294 -121.822 1211.3 903.706 478.178
-6.2927 -115.642 1149.85 953.707 484.358
40.0984 -113.507 1128.62 1000.1 486.493
85.5989 -112.489 1118.5 1045.6 487.511
-12.7285 -113.839 1163.54 947.271 486.161
34.0546 -110.832 1132.81 994.055 489.168
78.88 -108.6 1109.99 1038.88 491.4
-19.1358 -110.927 1166.37 940.864 489.073
28.0603 -108.504 1140.89 988.06 491.496
73.6486 -106.779 1122.75 1033.65 493.221
-25.6522 -108.33 1172.77 934.348 491.67
21.7184 -104.879 1135.41 981.718 495.121
68.7722 -105.648 1143.73 1028.77 494.352
125.891 -114.986 1244.83 1085.89 485.014
-32.0594 -105.111 1172.62 927.941 494.889
15.5278 -101.884 1136.62 975.528 498.116
62.5879 -102.634 1144.98 1022.59 497.366
116.879 -109.516 1221.76 1076.88 490.484
-38.4374 -101.82 1171.62 921.563 498.18
9.31943 -98.8342 1137.27 969.319 501.166
55.7845 -98.5431 1133.92 1015.78 501.457
107.67 -103.739 1193.71 1067.67 496.261
-44.7531 -98.4203 1169.29 915.247 501.58
3.11447 -96.1068 1141.8 963.114 503.893
49.2989 -94.892 1127.37 1009.3 505.108
98.8977 -98.2447 1167.2 1058.9 501.755
-52.3433 -97.4544 1196.67 907.657 502.546
-3.14113 -93.3878 1146.74 956.859 506.612
42.9422 -91.3985 1122.31 1002.94 508.602
90.9999 -93.4956 1148.06 1051 506.504
-60.4608 -96.7032 1228.69 899.539 503.297
-9.53001 -91.4023 1161.34 950.47 508.598
37.0288 -88.8636 1129.08 997.029 511.136
84.2861 -89.8909 1142.14 1044.29 510.109
-67.17 -93.3336 1228.55 892.83 506.666
-15.8599 -88.1224 1159.95 944.14 511.878
30.8252 -85.691 1127.95 990.825 514.309
77.7894 -86.4879 1138.44 1037.79 513.512
-22.3743 -85.6141 1168.99 937.626 514.386
24.7181 -82.8065 1130.66 984.718 517.193
71.3602 -83.1367 1135.17 1031.36 516.863
-28.9796 -83.0336 1177.72 931.02 516.966
18.532 -79.6947 1130.36 978.532 520.305
64.9277 -79.7553 1131.22 1024.93 520.245
119.258 -85.4505 1212 1079.26 514.549
-35.9912 -81.106 1196.77 924.009 518.894
12.3997 -76.8978 1134.68 972.4 523.102
58.7994 -76.7362 1132.29 1018.8 523.264
110.608 -80.6619 1190.22 1070.61 519.338
-43.2426 -79.1317 1216.72 916.757 520.868
6.19737 -73.8054 1134.82 966.197 526.195
52.4971 -73.484 1129.88 1012.5 526.516
102.527 -76.2378 1172.22 1062.53 523.762
-50.6526 -76.9582 1235.21 909.347 523.042
-0.00661808 -71.6371 1149.81 959.993 528.363
46.3491 -70.4395 1130.58 1006.35 529.561
95.2496 -72.3732 1161.62 1055.25 527.627
-57.0563 -73.1344 1227.7 902.944 526.866
-6.32434 -68.8413 1155.63 953.676 531.159
40.1383 -67.2988 1129.74 1000.14 532.701
88.2249 -68.6731 1152.81 1048.22 531.327
-63.963 -69.992 1231.46 896.037 530.008
-12.7511 -66.2492 1165.6 947.249 533.751
34.0102 -64.3014 1131.33 994.01 535.699
81.6 -65.264 1148.27 1041.6 534.736
-19.1906 -63.285 1169.71 940.809 536.715
27.8292 -61.2175 1131.49 987.829 538.782
74.96 -61.8262 1142.74 1034.96 538.174
-25.7251 -60.4163 1176.1 934.275 539.584
21.6743 -58.2074 1133.1 981.674 541.793
68.6535 -58.6519 1141.76 1028.65 541.348
-32.327 -57.508 1182.4 927.673 542.492
15.4829 -55.1213 1133.33 975.483 544.879
62.1483 -55.2967 1136.94 1022.15 544.703
-39.5799 -55.3797 1206.45 920.42 544.62
9.34018 -52.3205 1139.81 969.34 547.679
55.9768 -52.23 1137.83 1015.98 547.77
-46.8991 -52.8983 1225.36 913.101 547.102
3.14117 -49.7138 1151.59 963.141 550.286
49.6802 -49.0445 1136.09 1009.68 550.956
-53.6336 -49.5817 1226.17 906.366 550.418
-3.20819 -47.3597 1171.22 956.792 552.64
43.6397 -46.1192 1140.54 1003.64 553.881
93.6925 -47.797 1182.03 1053.69 552.203
-61.5863 -47.1874 1251.56 898.414 552.813
-9.59569 -44.0875 1169.34 950.404 555.913
37.4568 -43.0617 1142.14 997.457 556.938
85.487 -43.6752 1158.41 1045.49 556.325
-15.9646 -40.8306 1167.61 944.035 559.169
31.576 -40.4043 1155.42 991.576 559.596
79.0675 -40.4645 1157.14 1039.07 559.536
-22.4235 -37.7664 1171.56 937.577 562.234
25.3507 -37.3806 1159.59 985.351 562.619
73.059 -37.4643 1162.19 1033.06 562.536
-29.2474 -35.0665 1188.6 930.753 564.933
19.0553 -34.2899 1162.27 979.055 565.71
67.0231 -34.4508 1167.72 1027.02 565.549
-36.0538 -32.0922 1198.85 923.946 567.908
12.7167 -31.1506 1163.68 972.717 568.849
60.6904 -31.2852 1168.71 1020.69 568.715
-43.3791 -29.3369 1220.56 916.621 570.663
6.35047 -27.9499 1162.85 966.35 572.05
54.1551 -28.015 1165.56 1014.16 571.985
-51.9002 -26.9608 1265.64 908.1 573.039
-0.00667585 -24.7072 1159.84 959.993 575.293
47.1081 -24.4783 1149.1 1007.11 575.522
-6.38349 -21.6594 1166.44 953.617 578.341
40.9772 -21.4163 1153.35 1000.98 578.584
93.2207 -22.6184 1218.09 1053.22 577.382
-12.9239 -18.7079 1181.4 947.076 581.292
34.7591 -18.3095 1156.25 994.759 581.69
84.632 -18.8588 1190.94 1044.63 581.141
-19.6221 -15.6699 1196.01 940.378 584.33
28.6024 -15.2366 1162.93 988.602 584.763
77.9054 -15.5604 1187.64 1037.91 584.44
-26.2202 -12.429 1198.74 933.78 587.571
22.3156 -12.0961 1166.63 982.316 587.904
-33.2585 -9.28781 1216.48 926.741 590.712
16.0096 -8.94738 1171.89 976.01 591.053
-40.3436 -6.02761 1229.73 919.656 593.972
9.61451 -5.75094 1173.28 969.615 594.249
539.977 -6.32875 1291.17 1499.98 593.671
-47.9121 -2.71414 1251.82 912.088 597.286
3.21686 -2.55699 1179.34 963.217 597.443
535.009 -2.81042 1296.23 1495.01 597.19
-56.6307 0.731864 1294.69 903.369 600.732
-3.25033 0.670763 1186.6 956.75 600.671
528.109 0.732992 1296.69 1488.11 600.733
-65.1351 4.36644 1323.68 894.865 604.366
-9.82656 3.95013 1197.48 950.173 603.95
522.533 4.28981 1300.45 1482.53 604.29
-16.5116 7.28451 1207.62 943.488 607.284
459.686 7.80348 1293.65 1419.69 607.803
518.401 7.88983 1307.96 1478.4 607.89
-23.3364 10.6875 1219.26 936.664 610.688
25.7793 10.3364 1179.2 985.779 610.336
453.979 11.3738 1297.55 1413.98 611.374
527.382 11.8268 1349.23 1487.38 611.827
-30.3115 14.165 1231.84 929.688 614.165
19.2557 13.5056 1174.5 979.256 613.506
550.322 14.8406 1290.59 1510.32 614.841
-37.7524 17.8665 1255.34 922.248 617.867
12.8822 16.7775 1178.82 972.882 616.778
545.711 18.451 1296.4 1505.71 618.451
-101.298 22.4532 1323.43 858.702 622.453
-44.8465 21.4084 1261.85 915.153 621.408
6.49109 20.1657 1188.6 966.491 620.166
544.678 22.2418 1310.98 1504.68 622.242
-106.277 25.5288 1295.92 853.723 625.529
-52.2285 25.0898 1273.64 907.772 625.09
-0.00688783 23.5736 1196.67 959.993 623.574
539.189 25.9059 1315.07 1499.19 625.906
-111.779 28.6653 1277.84 848.221 628.665
-59.2311 28.5904 1274.5 900.769 628.59
-6.58484 26.9918 1203.23 953.415 626.992
471.863 29.1169 1297.96 1431.86 629.117
525.361 29.1324 1298.66 1485.36 629.132
-119.261 32.2924 1283.17 840.739 632.292
-66.4532 32.1976 1279.4 893.547 632.198
-13.3506 30.713 1220.41 946.649 630.713
461.391 32.4275 1288.54 1421.39 632.427
517.963 32.6634 1297.91 1477.96 632.663
-125.78 35.6593 1278.13 834.22 635.659
-73.4868 35.7138 1280.08 886.513 635.714
-20.1664 34.2937 1229.18 939.834 634.294
456.665 36.1331 1295.11 1416.67 636.133
510.244 36.1669 1296.32 1470.24 636.167
562.758 36.126 1294.86 1522.76 636.126
-132.215 38.9902 1272.81 827.785 638.99
-80.2057 39.0768 1275.64 879.794 639.077
-27.3013 38.235 1248.16 932.699 638.235
459.307 40.531 1323.12 1419.31 640.531
502.321 39.6443 1294.17 1462.32 639.644
561.166 40.0571 1307.64 1521.17 640.057
-138.724 42.3322 1268.71 821.276 642.332
-86.8603 42.4079 1270.97 873.14 642.408
-34.1808 41.7151 1250.21 925.819 641.715
495.263 43.1833 1294.21 1455.26 643.183
549.929 43.3094 1297.99 1509.93 643.309
-145.279 45.6802 1265.38 814.721 645.68
-93.7664 45.8614 1270.4 866.234 645.861
-41.0866 45.2106 1252.37 918.913 645.211
9.8784 43.5179 1205.49 969.878 643.518
487.957 46.6989 1293.6 1447.96 646.699
540.502 46.6562 1292.42 1500.5 646.656
-151.266 48.8386 1257.65 808.734 648.839
-99.8015 48.8882 1258.92 860.198 648.888
-48.2245 48.9295 1259.99 911.776 648.93
3.28724 46.7997 1205.14 963.287 646.8
479.594 50.1001 1290.13 1439.59 650.1
534.511 50.2901 1295.02 1494.51 650.29
-157.081 51.9259 1249.22 802.919 651.926
-106.513 52.2457 1256.91 853.487 652.246
-55.1066 52.3678 1259.85 904.893 652.368
-3.31916 50.3677 1211.73 956.681 650.368
470.649 53.4118 1284.96 1430.65 653.412
525.323 53.6147 1289.85 1485.32 653.615
-163.205 55.1022 1243.84 796.795 655.102
-113.486 55.7314 1258.04 846.514 655.731
-61.7418 55.5845 1254.72 898.258 655.584
-10.1509 54.7994 1237 949.849 654.799
463.241 56.8771 1283.9 1423.24 656.877
519.216 57.2446 1292.2 1479.22 657.245
-168.654 58.0373 1233.95 791.346 658.037
-120.137 59.0584 1255.66 839.863 659.058
-68.5276 58.9508 1253.38 891.472 658.951
-17.1171 58.8813 1251.9 942.883 658.881
456.748 60.4562 1285.38 1416.75 660.456
511.42 60.6899 1290.35 1471.42 660.69
-174.665 61.153 1228.78 785.335 661.153
-126.358 62.1741 1249.3 833.642 662.174
-75.435 62.4227 1254.3 884.565 662.423
-23.9314 62.2262 1250.35 936.069 662.226
26.5768 60.5008 1215.68 986.577 660.501
453.49 64.5058 1296.15 1413.49 664.506
504.344 64.2142 1290.3 1464.34 664.214
-180.231 64.1023 1220.98 779.769 664.102
-132.068 65.0375 1238.8 827.932 665.038
-81.6043 65.3008 1243.81 878.396 665.301
-30.7786 65.669 1250.83 929.221 665.669
19.986 64.0003 1219.04 979.986 664
459.068 69.9792 1332.92 1419.07 669.979
495.288 67.4683 1285.1 1455.29 667.468
-186.755 67.3852 1220 773.245 667.385
-137.831 67.9265 1229.8 822.169 667.927
-88.0939 68.4597 1239.45 871.906 668.46
-37.5662 68.9953 1249.15 922.434 668.995
13.4806 68.1359 1233.59 973.481 668.136
487.736 70.9046 1283.71 1447.74 670.905
-192.747 70.4723 1215.72 767.253 670.472
-144.034 71.0316 1225.37 815.966 671.032
-94.8854 71.8595 1239.65 865.115 671.859
-44.3227 72.2915 1247.11 915.677 672.292
6.82681 72.4637 1250.08 966.827 672.464
60.7797 75.8295 1308.14 1020.78 675.83
477.218 73.8717 1274.37 1437.22 673.872
533.624 74.4515 1284.37 1493.62 674.451
-199.515 73.8406 1216.47 760.485 673.841
-150.036 74.0371 1219.71 809.964 674.037
-101.303 74.9818 1235.27 858.697 674.982
-51.14 75.6997 1247.1 908.86 675.7
-0.00725857 76.5487 1261.08 959.993 676.549
53.4619 79.159 1304.09 1013.46 679.159
470.468 77.3908 1274.96 1430.47 677.391
526.682 77.9739 1284.56 1486.68 677.974
-205.16 76.7896 1210.54 754.84 676.79
-156.057 77.0514 1214.67 803.943 677.051
-107.692 78.0948 1231.11 852.308 678.095
-57.3313 78.2536 1233.62 902.669 678.254
-6.8342 79.2165 1248.8 953.166 679.216
45.9356 82.0146 1292.91 1005.94 682.015
462.394 80.6832 1271.92 1422.39 680.683
520.514 81.6191 1286.67 1480.51 681.619
-212.866 80.5099 1216.76 747.134 680.51
-162.272 80.1613 1211.49 797.729 680.161
-114.4 81.444 1230.87 845.6 681.444
-63.8144 81.2933 1228.6 896.186 681.293
-13.6316 82.451 1246.09 946.368 682.451
38.5224 84.7894 1281.43 998.522 684.789
95.305 88.7391 1341.12 1055.3 688.739
459.887 84.9814 1284.33 1419.89 684.981
514.115 85.2414 1288.26 1474.11 685.241
-219.899 83.9814 1218.87 740.101 683.981
-167.802 82.9331 1203.65 792.198 682.933
-120.474 84.3499 1224.22 839.526 684.35
-70.5654 84.6928 1229.19 889.435 684.693
-20.3728 85.5589 1241.77 939.627 685.559
31.1887 87.3725 1268.09 991.189 687.372
87.0845 91.4714 1327.58 1047.08 691.471
458.629 89.6182 1300.68 1418.63 689.618
505.83 88.5454 1285.11 1465.83 688.545
-227.627 87.7235 1224.6 732.373 687.724
-174.574 86.318 1204.98 785.426 686.318
-127.016 87.5922 1222.77 832.984 687.592
-77.3927 88.1752 1230.9 882.607 688.175
-27.1039 88.7651 1239.14 932.896 688.765
24.1002 90.2542 1259.93 984.1 690.254
79.1797 94.3294 1316.81 1039.18 694.329
477.747 98.5861 1376.24 1437.75 698.586
498.138 91.9352 1283.39 1458.14 691.935
-235.143 91.39 1228.89 724.857 691.39
-180.894 89.4792 1203.2 779.106 689.479
-132.678 90.2386 1213.41 827.322 690.239
-83.6933 91.0734 1224.63 876.307 691.073
-33.5154 91.1655 1225.87 926.485 691.165
17.0667 92.9053 1249.27 977.067 692.905
71.0435 96.6534 1299.67 1031.04 696.653
488.313 94.8974 1276.05 1448.31 694.897
-247.148 96.8202 1255.75 712.852 696.82
-186.559 92.3163 1197.34 773.441 692.316
-139.07 93.3931 1211.3 820.93 693.393
-90.0579 94.0758 1220.16 869.942 694.076
-40.3148 94.746 1228.85 919.685 694.746
10.1945 95.9185 1244.06 970.194 695.919
63.549 99.5957 1291.75 1023.55 699.596
480.128 98.1382 1272.85 1440.13 698.138
-192.273 95.1777 1192.18 767.727 695.178
-145.024 96.2612 1205.75 814.976 696.261
-96.2011 96.8801 1213.51 863.799 696.88
-46.8199 97.661 1223.29 913.18 697.661
3.3821 98.9886 1239.92 963.382 698.989
56.0368 102.304 1281.45 1016.04 702.304
110.984 104.571 1309.85 1070.98 704.571
472.617 101.499 1271.36 1432.62 701.499
-199.001 98.5408 1193.45 760.999 698.541
-151.529 99.4998 1205.06 808.471 699.5
-102.695 100.06 1211.85 857.305 700.06
-53.6126 101.203 1225.69 906.387 701.203
-3.38424 102.012 1235.49 956.616 702.012
48.6891 105.069 1272.51 1008.69 705.069
103.679 108.001 1308.02 1063.68 708.001
470.746 106.119 1285.23 1430.75 706.119
-205.403 101.742 1192.73 754.597 701.742
-157.566 102.436 1200.86 802.434 702.436
-108.824 102.904 1206.36 851.176 702.904
-60.1016 104.187 1221.39 899.898 704.187
-10.1119 105.113 1232.25 949.888 705.113
41.3848 107.643 1261.91 1001.38 707.643
96.0376 111.01 1301.38 1056.04 711.01
467.686 110.57 1296.22 1427.69 710.57
-213.333 105.701 1200.67 746.667 705.701
-163.73 105.46 1197.93 796.27 705.46
-115.372 106.158 1205.86 844.628 706.158
-66.6615 107.336 1219.25 893.339 707.336
-16.8577 108.541 1232.93 943.142 708.541
34.3624 110.694 1257.38 994.362 710.694
88.7586 114.355 1298.97 1048.76 714.355
463.308 114.784 1303.84 1423.31 714.784
-219.401 108.737 1197.96 740.599 708.737
-169.835 108.451 1194.81 790.165 708.451
-121.431 108.976 1200.59 838.569 708.976
-72.8844 110.001 1211.89 887.116 710.001
-23.4964 111.429 1227.62 936.504 711.429
27.321 113.435 1249.72 987.321 713.435
81.0232 116.99 1288.88 1041.02 716.99
459.409 119.185 1313.07 1419.41 719.185
-226.776 112.421 1202.34 733.224 712.421
-176.206 111.615 1193.72 783.794 711.615
-127.855 112.136 1199.29 832.145 712.136
-79.4746 113.264 1211.35 880.525 713.264
-30.0974 114.366 1223.14 929.903 714.366
20.4343 116.54 1246.39 980.434 716.54
73.5181 119.765 1280.89 1033.52 719.765
128.509 122.115 1306.01 1088.51 722.115
459.395 124.72 1333.87 1419.4 724.72
-233.098 115.583 1201.04 726.902 715.583
-182.12 114.493 1189.72 777.88 714.493
-133.819 114.905 1193.99 826.181 714.904
-85.6415 115.958 1204.95 874.359 715.958
-36.6096 117.151 1217.34 923.39 717.151
13.5419 119.254 1239.19 973.542 719.254
65.8628 122.057 1268.31 1025.86 722.057
120.559 124.846 1297.3 1080.56 724.846
459.612 130.498 1356.03 1419.61 730.498
-240.007 119.036 1202.77 719.993 719.036
-188.687 117.784 1190.12 771.313 717.784
-140.604 118.385 1196.19 819.396 718.385
-92.1176 119.108 1203.49 867.882 719.108
-43.2431 120.419 1216.73 916.757 720.419
6.74543 122.244 1235.18 966.745 722.244
58.5602 124.738 1260.37 1018.56 724.738
113.001 127.865 1291.97 1073 727.865
481.414 127.232 1285.57 1441.41 727.232
-246.819 122.441 1203.92 713.181 722.441
-194.975 120.903 1188.79 765.025 720.903
-146.879 121.437 1194.04 813.121 721.437
-98.2497 121.843 1198.04 861.75 721.843
-49.7517 123.389 1213.24 910.248 723.389
-0.00706849 124.896 1228.06 959.993 724.896
51.3299 127.339 1252.08 1011.33 727.339
105.069 130.318 1281.37 1065.07 730.318
474.25 130.708 1285.2 1434.25 730.708
-254.794 126.423 1210.54 705.206 726.423
-200.707 123.679 1184.26 759.293 723.679
-153.144 124.487 1191.99 806.856 724.487
-104.869 125.201 1198.83 855.131 725.201
-56.3745 126.684 1213.03 903.626 726.684
-6.7067 127.986 1225.5 953.293 727.986
44.4576 130.681 1251.31 1004.46 730.681
97.51 133.065 1274.14 1057.51 733.065
468.609 134.619 1289.01 1428.61 734.619
-263.256 130.648 1219.08 696.744 730.648
-207.281 126.978 1184.83 752.719 726.978
-158.894 127.132 1186.28 801.106 727.132
-111.043 128.04 1194.75 848.957 728.04
-62.8292 129.635 1209.63 897.171 729.635
-13.327 130.558 1218.25 946.673 730.558
37.377 133.247 1243.33 997.377 733.247
90.0636 135.823 1267.37 1050.06 735.823
144.847 138.519 1292.53 1104.85 738.519
463.044 138.586 1293.15 1423.04 738.586
-280.142 139.053 1265.24 679.858 739.053
-215.383 131.206 1193.84 744.617 731.206
-165.75 130.667 1188.93 794.25 730.667
-117.528 131.255 1194.28 842.472 731.255
-69.2696 132.611 1206.62 890.73 732.611
-19.9382 133.562 1215.27 940.062 733.562
30.4969 136.274 1239.96 990.497 736.274
82.6878 138.538 1260.55 1042.69 738.538
137.117 141.368 1286.3 1097.12 741.368
458.817 143.007 1301.21 1418.82 743.007
-221.482 134.21 1191.54 738.518 734.21
-172.016 133.735 1187.32 787.984 733.735
-123.662 134.09 1190.47 836.338 734.09
-75.5455 135.335 1201.53 884.454 735.335
-26.4856 136.388 1210.87 933.514 736.388
23.5365 138.594 1230.46 983.537 738.594
75.4834 141.397 1255.34 1035.48 741.397
129.485 144.215 1280.36 1089.48 744.215
452.658 146.873 1303.96 1412.66 746.873
-227.858 137.384 1190.81 732.142 737.384
-178.266 136.795 1185.71 781.734 736.795
-130.249 137.427 1191.19 829.751 737.427
-82.0358 138.487 1200.38 877.964 738.487
-33.0514 139.47 1208.9 926.949 739.47
16.7754 141.667 1227.94 976.775 741.667
68.3567 144.271 1250.51 1028.36 744.271
122.022 147.156 1275.52 1082.02 747.156
447.06 150.954 1308.44 1407.06 750.954
-234.391 140.653 1190.93 725.609 740.653
-184.028 139.491 1181.09 775.972 739.491
-136.174 140.079 1186.08 823.826 740.079
-87.9785 140.777 1191.99 872.021 740.777
-39.5109 142.237 1204.35 920.489 742.237
9.99874 144.106 1220.17 969.999 744.106
61.2533 147.048 1245.09 1021.25 747.048
114.649 150.119 1271.09 1074.65 750.119
438.844 154.157 1305.28 1398.84 754.157
-241.269 144.127 1192.75 718.731 744.128
-191.173 143.235 1185.36 768.827 743.235
-142.362 143.024 1183.62 817.638 743.024
-94.4043 143.897 1190.84 865.596 743.897
-46.0337 145.335 1202.75 913.966 745.335
3.32317 147.217 1218.32 963.323 747.217
54.3162 150.091 1242.1 1014.32 750.091
107.331 153.068 1266.74 1067.33 753.068
164.202 157.808 1305.97 1124.2 757.808
227.726 165.039 1365.81 1187.73 765.039
433.638 158.431 1311.12 1393.64 758.431
-247.837 147.416 1192.98 712.163 747.416
-196.614 145.705 1179.13 763.386 745.705
-148.116 145.555 1177.92 811.884 745.555
-100.53 146.592 1186.31 859.47 746.592
-52.5435 148.438 1201.25 907.456 748.438
-3.32672 150.074 1214.49 956.673 750.074
47.3031 152.768 1236.29 1007.3 752.768
99.7924 155.573 1258.99 1059.79 755.573
156.125 160.414 1298.17 1116.12 760.414
216.742 166.078 1344 1176.74 766.078
426.955 162.198 1312.61 1386.95 762.198
-254.114 150.532 1191.83 705.886 750.532
-203.136 148.983 1179.57 756.864 748.983
-155.156 149.353 1182.5 804.844 749.353
-106.94 149.728 1185.47 853.06 749.728
-58.9793 151.385 1198.58 901.021 751.385
-9.92211 152.716 1209.12 950.078 752.716
40.3737 155.489 1231.08 1000.37 755.489
92.8855 158.973 1258.66 1052.89 758.973
148.609 163.502 1294.52 1108.61 763.502
208.269 168.839 1336.77 1168.27 768.839
421.499 166.465 1317.98 1381.5 766.466
-260.753 153.862 1192.39 699.247 753.862
-210.388 152.791 1184.09 749.612 752.791
-162.234 153.164 1186.98 797.766 753.164
-113.079 152.508 1181.89 846.921 752.508
-65.3379 154.203 1195.04 894.662 754.203
-16.4466 155.213 1202.86 943.553 755.213
33.4845 158.103 1225.26 993.484 758.103
85.5534 161.562 1252.06 1045.55 761.562
140.316 165.605 1283.4 1100.32 765.605
199.53 171.264 1327.25 1159.53 771.264
415.585 170.598 1322.09 1375.58 770.598
-268.616 157.912 1198.39 691.384 757.912
-217.301 156.344 1186.49 742.699 756.344
-168.885 156.559 1188.13 791.115 756.559
-119.488 155.671 1181.38 840.512 755.671
-71.7233 157.146 1192.58 888.277 757.146
-22.9997 158.344 1201.67 937 758.344
26.7642 161.319 1224.25 986.764 761.319
78.5186 164.586 1249.04 1038.52 764.586
133.17 168.949 1282.15 1093.17 768.949
191.127 173.849 1319.34 1151.13 773.849
411.595 175.593 1332.58 1371.6 775.593
-277.431 162.514 1208.25 682.569 762.514
-223.5 159.382 1184.97 736.5 759.382
-174.881 159.352 1184.74 785.119 759.352
-125.605 158.469 1178.18 834.395 758.469
-77.9208 159.746 1187.67 882.079 759.746
-29.4374 160.909 1196.32 930.563 760.909
19.9529 163.694 1217.02 979.953 763.694
71.3404 167.18 1242.94 1031.34 767.18
125.384 171.392 1274.26 1085.38 771.392
182.782 176.362 1311.21 1142.78 776.362
406.632 180.265 1340.23 1366.63 780.265
-294.2 171.75 1251.48 665.8 771.75
-229.905 162.569 1184.59 730.095 762.569
-181.321 162.557 1184.5 778.679 762.557
-132.199 161.877 1179.54 827.801 761.877
-84.3249 162.821 1186.42 875.675 762.821
-35.8443 163.571 1191.89 924.156 763.571
13.2809 166.785 1215.31 973.281 766.785
64.3931 170.175 1240.01 1024.39 770.175
117.877 174.076 1268.43 1077.88 774.076
174.398 178.7 1302.13 1134.4 778.7
235.031 184.383 1343.54 1195.03 784.383
403.151 185.7 1353.14 1363.15 785.7
-235.907 165.475 1182.22 724.093 765.475
-187.611 165.631 1183.33 772.389 765.631
-138.132 164.487 1175.16 821.868 764.487
-90.1844 164.918 1178.24 869.816 764.918
-42.2586 166.429 1189.03 917.741 766.429
6.60208 169.214 1208.93 966.602 769.214
57.3493 172.767 1234.31 1017.35 772.767
110.377 176.638 1261.97 1070.38 776.638
166.026 180.895 1292.38 1126.03 780.895
226.49 187.068 1336.48 1186.49 787.068
401.153 191.983 1371.6 1361.15 791.983
432.742 181.637 1297.68 1392.74 781.637
-242.43 168.748 1182.51 717.57 768.748
-193.536 168.392 1180.01 766.464 768.392
-144.752 167.927 1176.75 815.248 767.927
-96.6275 168.142 1178.26 863.372 768.142
-48.7732 169.729 1189.38 911.227 769.729
-0.00694357 172.152 1206.36 959.993 772.151
50.3737 175.348 1228.75 1010.37 775.348
103.265 179.717 1259.37 1063.26 779.717
158.236 183.586 1286.48 1118.24 783.586
218.476 190.105 1332.17 1178.48 790.105
427.027 185.784 1301.89 1387.03 785.784
-248.91 171.992 1182.58 711.09 771.992
-199.325 171.05 1176.11 760.675 771.05
-151.341 171.319 1177.96 808.659 771.319
-102.672 170.703 1173.72 857.328 770.703
-55.1503 172.589 1186.69 904.85 772.589
-6.57521 174.739 1201.47 953.425 774.739
43.4119 177.706 1221.88 1003.41 777.706
95.8857 182.22 1252.91 1055.89 782.22
150.772 186.569 1282.82 1110.77 786.569
209.89 192.552 1323.95 1169.89 792.552
420.201 189.474 1302.79 1380.2 789.474
-255.445 175.272 1182.91 704.555 775.272
-206.397 174.808 1179.78 753.603 774.808
-158.035 174.82 1179.86 801.965 774.82
-109.188 174.069 1174.79 850.812 774.069
-61.5095 175.466 1184.22 898.491 775.466
-13.0891 177.287 1196.51 946.911 777.287
36.5611 180.204 1216.19 996.561 780.204
88.8032 185.159 1249.63 1048.8 785.159
143.342 189.524 1279.1 1103.34 789.524
201.698 195.246 1317.71 1161.7 795.246
264.196 201.713 1361.36 1224.2 801.713
415.032 193.948 1308.95 1375.03 793.948
-261.159 177.992 1179.51 698.841 777.992
-212.848 178.035 1179.79 747.152 778.035
-164.719 178.299 1181.54 795.281 778.299
-115.614 177.287 1174.83 844.386 777.287
-67.6257 177.763 1177.99 892.374 777.763
-19.5114 179.464 1189.26 940.489 779.464
29.828 183.01 1212.76 989.828 783.01
81.4825 187.449 1242.18 1041.48 787.449
135.558 191.901 1271.68 1095.56 791.901
193.608 197.942 1311.71 1153.61 797.942
252.78 202.255 1340.29 1212.78 802.255
407.919 197.547 1309.09 1367.92 797.547
-268.07 181.53 1181.54 691.93 781.53
-219.288 181.252 1179.74 740.712 781.252
-172.256 182.671 1188.97 787.744 782.671
-121.941 180.356 1173.91 838.059 780.356
-74.0219 180.876 1177.29 885.978 780.876
-25.9883 182.542 1188.13 934.012 782.542
23.1802 186.183 1211.83 983.18 786.183
74.2283 189.661 1234.47 1034.23 789.661
128.308 194.925 1268.73 1088.31 794.925
186.062 201.123 1309.07 1146.06 801.123
243.62 204.381 1330.28 1203.62 804.381
402.152 201.822 1313.63 1362.15 801.822
-274.511 184.747 1181.47 685.489 784.747
-225.194 184.032 1176.89 734.806 784.032
-178.413 185.564 1186.69 781.587 785.564
-128.336 183.533 1173.7 831.664 783.533
-80.3685 183.889 1175.98 879.632 783.889
-32.2502 184.454 1179.59 927.75 784.454
16.5163 189.048 1208.97 976.516 789.048
67.1554 192.107 1228.54 1027.16 792.107
120.649 197.21 1261.17 1080.65 797.21
178.453 204.183 1305.76 1138.45 804.183
235.666 207.417 1326.44 1195.67 807.417
396.475 206.195 1318.63 1356.47 806.195
-282.449 188.966 1187.69 677.551 788.966
-231.136 186.851 1174.39 728.864 786.851
-185.307 189.224 1189.31 774.693 789.224
-135.036 187.134 1176.17 824.964 787.134
-86.8769 187.275 1177.06 873.123 787.275
-38.6704 187.541 1178.73 921.33 787.541
9.87288 191.691 1204.81 969.873 791.691
60.2149 194.74 1223.98 1020.21 794.74
113.24 199.751 1255.47 1073.24 799.751
169.889 206.024 1294.9 1129.89 806.024
227.669 210.354 1322.12 1187.67 810.354
391.639 211.079 1326.67 1351.64 811.079
-289.783 192.772 1191.14 670.217 792.772
-236.934 189.564 1171.32 723.066 789.564
-191.96 192.626 1190.24 768.039 792.626
-141.313 190.143 1174.9 818.687 790.143
-92.9295 189.712 1172.24 867.07 789.712
-44.9806 190.197 1175.23 915.019 790.197
3.26503 193.72 1197 963.265 793.72
53.2011 196.893 1216.6 1013.2 796.893
105.672 201.836 1247.15 1065.67 801.836
160.595 206.712 1277.28 1120.59 806.712
219.639 213.189 1317.3 1179.64 813.189
282.744 220.274 1361.08 1242.74 820.274
383.193 214.038 1322.55 1343.19 814.038
426.962 208.922 1290.93 1386.96 808.922
-299.876 198.397 1205.54 660.124 798.397
-243.642 193.006 1172.78 716.358 793.006
-197.021 194.452 1181.57 762.979 794.452
-148.318 194.116 1179.53 811.682 794.116
-99.207 192.662 1170.69 860.793 792.662
-51.3102 193.051 1173.05 908.69 793.051
-3.27056 196.496 1193.99 956.729 796.496
46.5172 200.077 1215.75 1006.52 800.077
98.4061 204.315 1241.5 1058.41 804.315
152.631 208.861 1269.12 1112.63 808.861
211.902 216.244 1313.98 1171.9 816.244
269.796 219.514 1333.85 1229.8 819.514
376.881 218.185 1325.78 1336.88 818.185
419.7 212.347 1290.3 1379.7 812.347
-249.122 195.482 1168.42 710.878 795.482
-202.545 196.774 1176.14 757.455 796.774
-155.512 198.291 1185.21 804.488 798.291
-105.552 195.76 1170.08 854.448 795.76
-57.4903 195.466 1168.32 902.51 795.466
-9.74403 198.661 1187.42 950.256 798.661
39.6744 202.398 1209.76 999.674 802.398
91.0663 206.456 1234.01 1051.07 806.456
144.958 211.258 1262.72 1104.96 811.258
204.389 219.482 1311.87 1164.39 819.482
260.928 221.82 1325.85 1220.93 821.82
370.34 222.233 1328.32 1330.34 822.233
413.108 216.115 1291.75 1373.11 816.115
-256.306 199.295 1172.06 703.694 799.295
-209.391 200.387 1178.48 750.609 800.387
-162.825 202.568 1191.31 797.175 802.568
-111.917 198.903 1169.75 848.083 798.903
-63.8857 198.685 1168.48 896.114 798.685
-16.1952 201.405 1184.47 943.805 801.405
32.971 205.145 1206.47 992.971 805.145
83.6897 208.26 1224.79 1043.69 808.26
137.197 213.376 1254.87 1097.2 813.376
196.663 222.44 1308.18 1156.66 822.44
253.603 225.376 1325.45 1213.6 825.376
365.551 227.402 1337.36 1325.55 827.402
409.495 221.512 1302.72 1369.5 821.512
-262.488 202.325 1171.05 697.512 802.325
-215.102 202.918 1174.49 744.898 802.918
-169.798 206.384 1194.55 790.202 806.384
-118.28 202.045 1169.44 841.72 802.045
-70.2786 201.894 1168.56 889.721 801.894
-22.5487 203.543 1178.11 937.451 803.543
26.2367 207.347 1200.12 986.237 807.347
76.2153 209.468 1212.4 1036.22 809.468
129.379 215.212 1245.65 1089.38 815.212
189.476 225.975 1307.94 1149.48 825.975
245.02 227.756 1318.25 1205.02 827.756
358.837 231.443 1339.59 1318.84 831.443
402.293 225.027 1302.46 1362.29 825.027
-269.213 205.772 1172.46 690.787 805.772
-221.552 206.156 1174.64 738.448 806.156
-176.711 210.103 1197.14 783.289 810.103
-124.808 205.464 1170.71 835.192 805.464
-76.7697 205.363 1170.13 883.23 805.363
-28.8651 205.878 1173.06 931.135 805.878
19.6003 209.819 1195.52 979.6 809.819
69.1917 211.573 1205.51 1029.19 811.573
121.951 217.515 1239.37 1081.95 817.515
182.298 229.514 1307.74 1142.3 829.514
237.204 230.767 1314.87 1197.2 830.767
297.103 235.513 1341.91 1257.1 835.513
353.201 236.233 1346.02 1313.2 836.233
395.423 228.732 1303.28 1355.42 828.732
-274.811 208.362 1169.01 685.189 808.362
-227.154 208.613 1170.42 732.846 808.613
-182.985 213.061 1195.37 777.015 813.061
-130.924 208.212 1168.17 829.076 808.212
-82.924 207.953 1166.71 877.076 807.953
-35.1873 208.547 1170.04 924.813 808.547
12.9753 211.631 1187.35 972.975 811.631
62.3959 214.163 1201.55 1022.4 814.162
114.206 219.042 1228.93 1074.21 819.042
175.2 233.158 1308.12 1135.2 833.158
229.522 233.857 1312.05 1189.52 833.857
286.647 236.605 1327.47 1246.65 836.605
345.711 239.821 1345.51 1305.71 839.821
388.472 232.399 1303.87 1348.47 832.399
-281.821 212.023 1171.58 678.179 812.023
-233.271 211.558 1169.01 726.729 811.558
-189.713 216.549 1196.59 770.287 816.549
-137.904 212.319 1173.22 822.096 812.319
-89.2542 211.028 1166.08 870.746 811.028
-41.5015 211.326 1167.73 918.499 811.326
6.46402 214.206 1183.65 966.464 814.206
55.7941 217.318 1200.84 1015.79 817.318
107.076 221.551 1224.23 1067.08 821.551
167.181 235.511 1301.37 1127.18 835.511
222.941 238.076 1315.54 1182.94 838.076
278.908 239.82 1325.18 1238.91 839.82
340.543 245.074 1354.21 1300.54 845.074
382.878 236.912 1309.11 1342.88 836.912
-288.095 215.128 1171.05 671.905 815.128
-238.591 213.793 1163.78 721.409 813.793
-196.626 220.236 1198.85 763.374 820.236
-145.345 217.061 1181.57 814.655 817.061
-95.3778 213.653 1163.02 864.622 813.653
-47.6659 213.535 1162.38 912.334 813.535
-0.00679264 216.797 1180.13 959.993 816.797
48.9128 219.182 1193.12 1008.91 819.182
100.138 224.347 1221.23 1060.14 824.347
157.631 235.431 1281.57 1117.63 835.431
215.143 240.993 1311.84 1175.14 840.993
270.479 242.381 1319.4 1230.48 842.381
332.254 248.114 1350.61 1292.25 848.114
375.688 240.469 1309 1335.69 840.469
-296.378 219.723 1178.53 663.622 819.723
-244.733 216.779 1162.74 715.267 816.779
-201.324 221.471 1187.9 758.676 821.471
-153.087 222.151 1191.55 806.913 822.151
-101.91 217.202 1165.01 858.091 817.202
-54.0992 217.028 1164.07 905.901 817.028
-6.44492 219.562 1177.67 953.555 819.562
42.3568 222.268 1192.18 1002.36 822.268
93.6679 228.188 1223.93 1053.67 828.188
148.903 236.202 1266.92 1108.9 836.202
208.464 245.158 1314.95 1168.46 845.158
263.21 245.934 1319.12 1223.21 845.934
326.321 252.93 1356.64 1286.32 852.93
370.089 245.079 1314.53 1330.09 845.079
-304.021 223.828 1183.2 655.979 823.828
-251.138 220 1162.96 708.862 820
-205.867 222.608 1176.75 754.133 822.608
-160.354 226.471 1197.17 799.646 826.471
-108.297 220.424 1165.21 851.703 820.424
-60.2599 219.47 1160.16 899.74 819.47
-12.8385 222.012 1173.6 947.161 822.012
35.6267 224.189 1185.11 995.627 824.189
87.0277 231.669 1224.65 1047.03 831.669
140.37 236.953 1252.58 1100.37 836.953
201.423 248.935 1315.92 1161.42 848.935
255.11 248.675 1314.54 1215.11 848.675
315.072 253.555 1340.34 1275.07 853.555
362.921 248.684 1314.59 1322.92 848.684
-315.868 230.996 1203.7 644.132 830.996
-258.576 224.115 1167.84 701.424 824.115
-212.028 225.535 1175.24 747.972 825.535
-168.073 231.361 1205.6 791.927 831.361
-114.951 224.162 1168.09 845.049 824.162
-66.7346 223.083 1162.46 893.265 823.083
-19.2522 225.194 1173.46 940.748 825.194
29.1482 227.431 1185.12 989.148 827.431
79.8416 233.58 1217.16 1039.84 833.58
132.898 239.252 1246.72 1092.9 839.252
194.765 253.229 1319.55 1154.77 853.229
247.57 251.908 1312.67 1207.57 851.908
306.503 256.18 1334.93 1266.5 856.18
356.78 253.019 1318.46 1316.78 853.019
-330.429 240.084 1233.49 629.571 840.084
-265.174 227.491 1168.78 694.826 827.491
-217.297 227.537 1169.02 742.703 827.537
-174.739 234.756 1206.11 785.261 834.756
-121.217 227.131 1166.93 838.784 827.131
-72.7754 225.288 1157.47 887.225 825.288
-25.5298 227.177 1167.17 934.47 827.177
22.5494 229.451 1178.85 982.549 829.451
72.6928 235.305 1208.93 1032.69 835.305
125.126 240.819 1237.26 1085.13 840.819
188.222 257.755 1324.27 1148.22 857.755
240.417 255.52 1312.79 1200.42 855.52
296.637 257.599 1323.47 1256.64 857.599
349.737 256.744 1319.08 1309.74 856.744
-345.506 249.473 1263.97 614.494 849.474
-271.042 230.243 1166.54 688.958 830.243
-223.458 230.496 1167.82 736.542 830.496
-182.276 239.292 1212.39 777.724 839.292
-128.246 231.494 1172.88 831.754 831.494
-79.1138 228.483 1157.62 880.886 828.483
-31.881 230.154 1166.09 928.119 830.154
16.0706 232.179 1176.35 976.071 832.179
66.0249 238.397 1207.86 1026.02 838.397
118.061 243.581 1234.12 1078.06 843.581
181.737 262.464 1329.79 1141.74 862.464
234.119 260.085 1317.74 1194.12 860.085
288.506 260.408 1319.38 1248.51 860.408
343.121 260.802 1321.37 1303.12 860.802
-276.744 232.863 1163.7 683.256 832.863
-229.273 233.109 1164.93 730.727 833.109
-189.964 243.968 1219.19 770.036 843.968
-134.935 235.183 1175.29 825.065 835.183
-85.1225 230.78 1153.29 874.877 830.78
-38.1292 232.569 1162.23 921.871 832.569
9.61831 234.873 1173.75 969.618 834.873
59.2551 241.021 1204.47 1019.26 841.021
110.944 246.132 1230.01 1070.94 846.132
174.882 266.732 1332.96 1134.88 866.732
226.867 263.631 1317.46 1186.87 863.631
280.34 263.12 1314.9 1240.34 863.12
336.363 264.781 1323.2 1296.36 864.781
-284.553 237.25 1169.65 675.447 837.25
-235.857 236.509 1165.99 724.143 836.509
-197.499 248.394 1224.59 762.501 848.394
-142.03 239.525 1180.86 817.97 839.525
-91.6113 234.403 1155.61 868.389 834.403
-44.4947 235.808 1162.54 915.505 835.808
3.20467 238.31 1174.87 963.205 838.31
52.5721 243.858 1202.22 1012.57 843.858
104.538 250.256 1233.76 1064.54 850.256
168.862 272.42 1343.03 1128.86 872.42
220.223 267.912 1320.81 1180.22 867.912
273.148 266.71 1314.88 1233.15 866.71
331.001 269.924 1330.73 1291 869.924
375.725 263.037 1296.77 1335.72 863.037
-290.589 240.152 1168.21 669.411 840.152
-241.73 239.2 1163.58 718.27 839.2
-203.481 250.863 1220.31 756.519 850.863
-148.958 243.525 1184.62 811.042 843.525
-97.7844 237.211 1153.91 862.216 837.211
-50.6247 237.926 1157.38 909.375 837.926
-3.20562 240.578 1170.28 956.794 840.578
45.8796 246.499 1199.08 1005.88 846.499
97.3735 252.541 1228.47 1057.37 852.541
164.39 280.997 1366.9 1124.39 880.997
212.966 271.476 1320.59 1172.97 871.476
265.573 269.912 1312.97 1225.57 869.912
322.877 272.844 1327.24 1282.88 872.844
369.405 267.138 1299.48 1329.41 867.138
-296.166 242.681 1165.02 663.834 842.681
-247.528 241.831 1160.94 712.472 841.831
-208.165 251.795 1208.77 751.835 851.795
-155.475 246.829 1184.93 804.525 846.829
-104.68 241.723 1160.42 855.32 841.723
-56.9955 241.274 1158.27 903.005 841.274
-9.58113 243.212 1167.57 950.419 843.212
39.2304 249.179 1196.22 999.23 849.179
90.1416 254.442 1221.48 1050.14 854.442
156.301 283.614 1361.53 1116.3 883.614
206.37 275.918 1324.58 1166.37 875.918
258.753 273.879 1314.79 1218.75 873.879
313.676 274.768 1319.06 1273.68 874.768
362.717 271.001 1300.98 1322.72 871.001
-304.179 247.201 1171.35 655.821 847.201
-253.446 244.591 1158.98 706.554 844.591
-211.558 251.28 1190.68 748.442 851.28
-162.245 250.517 1187.06 797.755 850.517
-110.92 244.664 1159.33 849.08 844.664
-63.1261 243.663 1154.58 896.874 843.663
-15.9024 245.451 1163.06 944.098 845.451
32.5578 251.422 1191.35 992.558 851.422
82.8341 255.836 1212.26 1042.83 855.836
142.529 275.12 1303.64 1102.53 875.12
200.207 281.054 1331.76 1160.21 881.054
251.5 277.402 1314.45 1211.5 877.402
305.559 277.551 1315.16 1265.56 877.551
356.305 275.098 1303.54 1316.31 875.098
-311.754 251.348 1175.77 648.246 851.348
-259.096 247.105 1155.92 700.904 847.105
-216.49 252.694 1182.07 743.51 852.694
-171.47 257.876 1206.31 788.53 857.876
-117.312 247.948 1159.86 842.688 847.948
-69.5901 247.359 1157.11 890.41 847.359
-22.2068 248.029 1160.24 937.793 848.029
26.0589 254.815 1191.99 986.059 854.815
75.8687 258 1206.89 1035.87 858
133.827 275.442 1288.48 1093.83 875.442
194.304 286.726 1341.27 1154.3 886.726
244.779 281.529 1316.95 1204.78 881.529
298.642 281.403 1316.36 1258.64 881.403
348.894 278.433 1302.47 1308.89 878.433
-320.934 256.764 1185.94 639.066 856.764
-264.731 249.619 1152.94 695.269 849.619
-221.744 254.538 1175.66 738.256 854.538
-178.431 261.71 1208.79 781.569 861.71
-123.982 251.787 1162.96 836.018 851.787
-75.5376 249.274 1151.35 884.462 849.274
-28.4085 249.958 1154.51 931.591 849.958
19.4201 256.458 1184.53 979.42 856.458
68.9728 260.174 1201.69 1028.97 860.174
124.119 273.1 1261.4 1084.12 873.1
187.584 291.343 1345.66 1147.58 891.343
238.083 285.734 1319.75 1198.08 885.734
290.724 284.296 1313.11 1250.72 884.296
342.318 282.443 1304.55 1302.32 882.443
-327.815 260.321 1187.38 632.185 860.321
-270.655 252.416 1151.33 689.345 852.417
-228.508 258.132 1177.4 731.492 858.132
-185.605 265.825 1212.48 774.396 865.825
-130.865 255.994 1167.64 829.135 855.994
-82.0807 253.188 1154.85 877.919 853.188
-34.7004 252.97 1153.85 925.3 852.97
12.9159 259.122 1181.91 972.916 859.122
62.282 262.947 1199.36 1022.28 862.947
115.469 272.412 1242.53 1075.47 872.412
185.197 303.157 1382.76 1145.2 903.157
231.225 289.788 1321.79 1191.23 889.788
284.247 288.597 1316.35 1244.25 888.597
334.837 285.711 1303.19 1294.84 885.711
-341.694 269.391 1213.62 618.306 869.391
-276.656 255.294 1150.11 683.344 855.294
-234.071 260.378 1173.02 725.929 860.378
-192.341 269.291 1213.17 767.659 869.291
-137.026 258.765 1165.75 822.974 858.765
-88.6779 257.168 1158.55 871.322 857.168
-40.8233 254.969 1148.65 919.177 854.969
6.41469 260.733 1174.61 966.415 860.733
55.4742 265.026 1193.95 1015.47 865.026
108.223 274.658 1237.35 1068.22 874.658
223.788 293.125 1320.54 1183.79 893.125
328.059 289.578 1304.56 1288.06 889.578
-282.398 257.939 1147.89 677.602 857.939
-239.721 262.749 1169.3 720.279 862.749
-199.508 273.339 1216.42 760.492 873.339
-143.715 262.529 1168.32 816.285 862.529
-95.6125 261.982 1165.88 864.387 861.982
-47.1135 258.167 1148.91 912.887 858.167
-0.00674345 263.263 1171.59 959.993 863.263
48.8148 267.565 1190.73 1008.81 867.565
100.599 275.682 1226.85 1060.6 875.682
-289.059 261.425 1149.42 670.941 861.425
-244.721 264.44 1162.68 715.279 864.44
-206.865 277.613 1220.6 753.135 877.613
-151.789 268.709 1181.45 808.211 868.709
-101.58 264.112 1161.24 858.42 864.112
-53.3411 261.047 1147.76 906.659 861.047
-6.3516 263.97 1160.61 953.648 863.97
171.336 195.298 858.677 1131.34 795.298
213.633 202.001 888.152 1173.63 802.001
256.452 207.175 910.899 1216.45 807.175
-294.347 263.675 1145.55 665.653 863.675
-248.446 264.813 1150.49 711.554 864.813
-215.464 283.484 1231.61 744.536 883.484
-160.029 275 1194.75 799.971 875
-107.845 267.079 1160.34 852.155 867.079
-60.131 266.467 1157.68 899.869 866.467
89.2945 183.405 796.81 1049.29 783.405
125.017 187.994 816.75 1085.02 787.994
161.442 191.478 831.886 1121.44 791.478
199.639 195.481 849.276 1159.64 795.481
240.743 200.719 872.034 1200.74 800.719
271.69 197.229 856.869 1231.69 797.229
-300.487 266.698 1145.08 659.513 866.698
-255.452 268.712 1153.73 704.548 868.712
-220.494 284.652 1222.17 739.506 884.652
-166.484 278.136 1194.2 793.516 878.136
-113.912 269.598 1157.54 846.088 869.599
-66.4481 269.584 1157.48 893.552 869.584
19.3132 182.889 785.245 979.313 782.889
51.742 183.715 788.791 1011.74 783.715
83.3024 182.008 781.463 1043.3 782.008
116.968 184.572 792.472 1076.97 784.572
154.523 190.823 819.312 1114.52 790.823
191.833 194.594 835.5 1151.83 794.594
231.63 199.363 855.976 1191.63 799.363
269.754 201.626 865.691 1229.75 801.625
-306.36 269.487 1143.64 653.64 869.487
-260.723 270.789 1149.16 699.277 870.789
-222.674 282.285 1197.95 737.326 882.285
-173.827 282.726 1199.82 786.173 882.726
-120.82 274.076 1163.11 839.18 874.076
-72.8652 273.083 1158.9 887.135 873.083
14.4681 178.232 756.374 974.468 778.232
46.1518 180.863 767.537 1006.15 780.863
78.6275 183.206 777.48 1038.63 783.206
112.742 186.913 793.215 1072.74 786.914
149.633 192.534 817.066 1109.63 792.534
187.463 197.086 836.384 1147.46 797.086
223.383 198.532 842.52 1183.38 798.532
264.506 203.595 864.008 1224.51 803.595
-312.83 272.804 1144.44 647.17 872.804
-266.86 273.782 1148.54 693.14 873.781
-229.095 285.401 1197.28 730.905 885.401
-179.884 285.209 1196.48 780.116 885.209
-126.993 276.852 1161.42 833.007 876.852
-78.9465 275.364 1155.18 881.053 875.364
10.2393 178.662 749.504 970.239 778.662
41.3863 180.477 757.118 1001.39 780.477
74.3588 185.285 777.289 1034.36 785.285
109.605 191.174 801.994 1069.61 791.174
143.568 192.624 808.074 1103.57 792.624
178.759 194.867 817.486 1138.76 794.867
218.911 200.957 843.035 1178.91 800.957
261.097 206.999 868.38 1221.1 806.999
-319.366 276.173 1145.44 640.634 876.173
-271.979 275.745 1143.66 688.021 875.745
-235.223 288.163 1195.16 724.777 888.163
-186.177 288.096 1194.89 773.823 888.096
-133.99 281.387 1167.06 826.01 881.387
-85.3681 278.869 1156.62 874.632 878.869
6.14507 180.806 749.898 966.145 780.806
37.2072 182.351 756.306 997.207 782.351
70.5102 188.481 781.731 1030.51 788.481
104.098 191.304 793.437 1064.1 791.304
139.093 194.752 807.739 1099.09 794.752
175.354 198.305 822.477 1135.35 798.305
216.136 205.001 850.248 1176.14 805.001
254.086 207.524 860.711 1214.09 807.524
-326.376 279.946 1148.07 633.624 879.946
-276.572 277.208 1136.84 683.428 877.208
-242.69 292.554 1199.78 717.31 892.554
-194.229 293.659 1204.31 765.771 893.659
-140.701 285.247 1169.81 819.299 885.247
-91.4475 281.281 1153.54 868.552 881.281
2.05207 183.445 752.314 962.052 783.445
33.2768 185.557 760.974 993.277 785.557
65.3178 187.974 770.888 1025.32 787.974
99.3038 192.587 789.805 1059.3 792.587
134.967 197.383 809.475 1094.97 797.383
172.358 202.315 829.7 1132.36 802.315
211.17 207.013 848.969 1171.17 807.013
247.205 208.045 853.201 1207.2 808.045
-332.568 283.012 1147.78 627.432 883.012
-279.68 277.235 1124.35 680.32 877.235
-243.254 288.718 1170.92 716.746 888.718
-202.543 299.51 1214.69 757.457 899.51
-148.586 291.366 1181.66 811.414 891.366
-97.9291 284.944 1155.61 862.071 884.944
-2.05459 184.948 750.072 957.945 784.948
29.3229 188.966 766.366 989.323 788.966
61.1164 190.121 771.051 1021.12 790.121
95.3523 195.496 792.85 1055.35 795.496
130.667 199.787 810.253 1090.67 799.787
168.56 205.482 833.35 1128.56 805.482
206.204 209.005 847.637 1166.2 809.005
241.73 209.675 850.352 1201.73 809.675
-342.967 289.633 1161.75 617.033 889.633
-284.961 279.46 1120.95 675.039 879.46
-249.281 291.481 1169.16 710.719 891.481
-211.61 306.344 1228.78 748.39 906.344
-155.391 295.251 1184.28 804.609 895.251
-104.788 289.598 1161.61 855.212 889.598
-6.19155 188.105 754.51 953.808 788.105
24.8307 188.761 757.141 984.831 788.761
56.5193 190.939 765.877 1016.52 790.939
91.2543 198.177 794.909 1051.25 798.177
126.947 203.137 814.806 1086.95 803.137
164.16 207.957 834.14 1124.16 807.957
201.087 210.815 845.602 1161.09 810.815
234.496 209.687 841.077 1194.5 809.687
-356.597 298.909 1185.96 603.403 898.909
-290.05 281.515 1116.94 669.95 881.516
-254.416 293.229 1163.42 705.583 893.229
-220.716 313.091 1242.22 739.284 913.091
-161.477 297.773 1181.45 798.523 897.773
-111.899 294.779 1169.57 848.101 894.779
-10.3639 191.044 757.987 949.636 791.044
20.6095 190.073 754.136 980.609 790.073
53.1572 196.075 777.948 1013.16 796.075
86.7562 199.998 793.516 1046.76 799.998
120.606 202.203 802.261 1080.61 802.203
157.114 206.963 821.15 1117.11 806.963
194.265 210.741 836.136 1154.26 810.741
229.611 211.721 840.027 1189.61 811.721
271.655 217.816 864.21 1231.65 817.816
-367.577 305.893 1200.64 592.423 905.893
-295.9 284.323 1115.98 664.1 884.323
-256.863 291.961 1145.96 703.137 891.961
-167.485 300.195 1178.28 792.515 900.195
-117.994 297.223 1166.61 842.006 897.223
-14.749 196.328 770.595 945.251 796.328
16.5723 193.133 758.053 976.572 793.133
48.4993 196.56 771.507 1008.5 796.56
81.4361 199.758 784.06 1041.44 799.758
118.896 209.102 820.732 1078.9 809.102
154.056 211.169 828.846 1114.06 811.169
188.386 211.557 830.372 1148.39 811.557
229.461 218.243 856.613 1189.46 818.243
267.924 220.999 867.428 1227.92 820.999
-302.277 287.636 1117 657.723 887.636
-257.524 288.809 1121.55 702.476 888.809
-175.723 306.549 1190.45 784.277 906.549
-124.464 300.634 1167.48 835.536 900.634
-75.6249 296.823 1152.68 884.375 896.823
12.5024 196.37 762.58 972.502 796.37
44.1688 198.163 769.541 1004.17 798.163
78.9685 206.661 802.544 1038.97 806.661
113.475 209.618 814.027 1073.47 809.618
150.349 214.611 833.416 1110.35 814.611
186.545 216.966 842.562 1146.55 816.966
223.801 219.626 852.889 1183.8 819.626
260.878 221.414 859.832 1220.88 821.414
-309.253 291.509 1120.15 650.747 891.509
-262.11 290.164 1114.98 697.89 890.164
-184.962 314.447 1208.29 775.038 914.447
-130.872 303.885 1167.7 829.128 903.885
-81.9244 299.967 1152.65 878.076 899.967
8.30385 197.75 759.872 968.304 797.75
40.1896 201.408 773.927 1000.19 801.408
73.644 206.231 792.46 1033.64 806.231
110.128 213.988 822.268 1070.13 813.988
145.622 216.635 832.438 1105.62 816.635
180.253 217.237 834.754 1140.25 817.237
216.079 218.858 840.982 1176.08 818.858
254.877 222.628 855.469 1214.88 822.628
-316.149 295.292 1122.89 643.851 895.292
-265.755 290.532 1104.79 694.245 890.532
-192.041 318.533 1211.27 767.959 918.533
-136.302 304.942 1159.59 823.698 904.943
-88.2082 303.057 1152.42 871.792 903.057
4.15331 199.999 760.525 964.153 799.999
36.0752 204.183 776.435 996.075 804.183
69.1974 208.053 791.152 1029.2 808.053
105.722 216.418 822.962 1065.72 816.418
143.134 222.113 844.616 1103.13 822.113
177.375 221.625 842.763 1137.38 821.625
212.606 222.333 845.452 1172.61 822.333
251.431 226.073 859.678 1211.43 826.073
-325.494 301.329 1134.06 634.506 901.329
-270.984 292.677 1101.5 689.016 892.677
-242.673 314.517 1183.69 717.327 914.517
-203.419 329.551 1240.27 756.581 929.551
-143.16 309.233 1163.81 816.84 909.233
-94.7149 306.876 1154.94 865.285 906.876
-0.00438942 202.63 762.605 959.996 802.63
31.6886 205.385 772.972 991.689 805.385
65.1462 211.103 794.493 1025.15 811.103
100.828 217.815 819.752 1060.83 817.815
138.83 224.928 846.522 1098.83 824.928
173.016 224.251 843.974 1133.02 824.251
205.026 221.449 833.43 1165.03 821.449
248.423 229.99 865.573 1208.42 829.99
-332.501 305.17 1136.82 627.499 905.17
-277.145 295.836 1102.05 682.855 895.836
-238.561 304.256 1133.42 721.439 904.256
-210.114 332.805 1239.77 749.886 932.805
-149.783 312.958 1165.83 810.217 912.958
-100.576 308.644 1149.76 859.424 908.644
