ply
format ascii 1.0
element vertex 1650
property float x
property float y
property float z
property float u
property float v
end_header
70.7271 -470.946 1078.21 0 0
-37.0099 -451.998 1041.35 0 0
34.7117 -459.412 1058.43 0 0
-66.5176 -419.806 973.312 0 0
-0.00610504 -457.486 1060.67 0 0
73.8814 -466.358 1081.24 0 0
-34.1832 -446.563 1041.95 0 0
37.7245 -455.069 1061.8 0 0
2.89315 -451.685 1060.67 0 0
-31.0974 -437.522 1034.05 0 0
5.71743 -440.114 1046.94 0 0
-66.4156 -289.921 694.173 0 0
-95.5232 -308.492 743.504 0 0
-40.3476 -278.36 670.881 0 0
5.35983 -271.386 654.073 0 0
-64.0814 -284.189 689.474 0 0
-16.0774 -269.311 653.378 0 0
27.1248 -255.673 620.291 0 0
-90.1335 -293.495 716.803 0 0
-38.2884 -273.084 666.955 0 0
6.9044 -258.694 631.81 0 0
47.9556 -247.722 605.013 0 0
-61.7843 -278.56 684.901 0 0
-14.1002 -262.183 644.635 0 0
28.0682 -245.699 604.104 0 0
-86.8958 -285.378 706.412 0 0
-36.145 -267.071 661.096 0 0
8.5554 -252.993 626.246 0 0
48.9338 -241.086 596.774 0 0
-117.696 -303.094 755.375 0 0
-59.2285 -271.68 677.086 0 0
-12.1912 -255.577 636.954 0 0
29.6246 -241.622 602.175 0 0
69.8665 -238.522 594.448 0 0
-84.7006 -280.64 704.214 0 0
-34.1018 -261.646 656.55 0 0
10.1576 -246.905 619.562 0 0
50.544 -237.725 596.526 0 0
-112.645 -291.244 735.869 0 0
-57.1781 -267.046 674.73 0 0
-10.3584 -249.884 631.367 0 0
31.1658 -237.531 600.156 0 0
70.5308 -232.111 586.46 0 0
-151.457 -320.261 814.813 0 0
-81.8039 -273.541 695.947 0 0
-32.2441 -257.552 655.268 0 0
11.6962 -240.334 611.461 0 0
51.6718 -232.204 590.778 0 0
-108.906 -282.736 724.378 0 0
-55.0706 -262.105 671.521 0 0
-8.59143 -245.256 628.354 0 0
32.6354 -233.03 597.031 0 0
71.5025 -226.901 581.327 0 0
-146.785 -310.635 801.468 0 0
-79.5951 -268.702 693.277 0 0
-30.2747 -252.483 651.432 0 0
13.3175 -236.104 609.171 0 0
52.9738 -227.631 587.31 0 0
91.6721 -224.12 578.251 0 0
-106.45 -277.535 721.153 0 0
-53.1084 -257.819 669.923 0 0
-6.86767 -241.603 627.788 0 0
33.9851 -227.874 592.112 0 0
72.3547 -221.468 575.467 0 0
-139.266 -294.967 771.932 0 0
-77.476 -264.148 691.278 0 0
-28.3701 -247.839 648.597 0 0
14.9007 -231.5 605.838 0 0
54.2595 -223.105 583.869 0 0
91.8934 -217.738 569.822 0 0
-103.742 -271.661 716.063 0 0
-51.2267 -253.907 669.264 0 0
-5.14434 -237.833 626.896 0 0
35.4698 -223.793 589.888 0 0
73.4044 -216.776 571.394 0 0
109.739 -211.547 557.611 0 0
-133.795 -283.622 753.017 0 0
-74.9393 -258.14 685.36 0 0
-26.582 -244.153 648.226 0 0
16.5163 -227.632 604.362 0 0
55.6857 -219.245 582.094 0 0
93.0971 -213.81 567.664 0 0
-101.086 -265.91 711.15 0 0
-49.0005 -248.238 663.888 0 0
-3.41874 -233.584 624.698 0 0
36.9465 -219.76 587.728 0 0
74.9718 -213.668 571.436 0 0
112.205 -210.265 562.333 0 0
-130.652 -277.205 746.817 0 0
-72.9146 -253.866 683.941 0 0
-24.7342 -239.873 646.243 0 0
18.1829 -224.507 604.846 0 0
57.3135 -216.201 582.468 0 0
94.361 -210.066 565.939 0 0
-171.931 -304.927 827.599 0 0
-98.7253 -260.921 708.161 0 0
-46.9287 -243.276 660.271 0 0
-1.7032 -229.097 621.789 0 0
38.4303 -215.858 585.857 0 0
76.3602 -210.067 570.14 0 0
113.301 -206.387 560.152 0 0
-128.123 -272.085 743.982 0 0
-70.9626 -249.837 683.147 0 0
-22.8776 -235.413 643.707 0 0
19.7612 -220.365 602.559 0 0
58.5156 -211.606 578.61 0 0
95.5973 -206.302 564.106 0 0
129.988 -199.907 546.62 0 0
-160.976 -285.012 785.197 0 0
-96.3125 -255.782 704.671 0 0
-45.0631 -239.343 659.381 0 0
-0.00357338 -225.349 620.828 0 0
39.9618 -212.284 584.835 0 0
77.525 -205.905 567.26 0 0
115.16 -203.905 561.752 0 0
-125.803 -267.409 742.293 0 0
-69.0247 -245.85 682.448 0 0
-21.0708 -231.375 642.267 0 0
21.4132 -217.121 602.699 0 0
59.7628 -207.283 575.391 0 0
96.2371 -201.33 558.867 0 0
133.416 -199.816 554.662 0 0
-157.073 -277.614 776.513 0 0
-94.2061 -251.449 703.325 0 0
-43.3242 -236.084 660.349 0 0
1.68278 -220.56 616.927 0 0
41.3776 -208.167 582.263 0 0
78.8554 -202.239 565.68 0 0
115.913 -199.488 557.985 0 0
-122.604 -260.863 735.28 0 0
-66.8205 -240.898 679.006 0 0
-19.2581 -227.19 640.368 0 0
23.033 -213.57 601.976 0 0
61.3119 -204.059 575.169 0 0
97.5654 -197.871 557.727 0 0
134.837 -196.645 554.271 0 0
-154.985 -273.43 776.685 0 0
-92.1381 -247.213 702.216 0 0
-41.4362 -232.009 659.029 0 0
3.3777 -217.742 618.501 0 0
43.0064 -205.161 582.767 0 0
80.3639 -199.053 565.415 0 0
117.527 -196.585 558.406 0 0
-120.466 -256.571 734.499 0 0
-65.1129 -237.728 680.557 0 0
-17.5327 -224.009 641.283 0 0
24.7497 -210.885 603.713 0 0
62.984 -201.234 576.083 0 0
99.0383 -194.72 557.437 0 0
136.492 -193.813 554.84 0 0
-152.345 -268.274 774.059 0 0
-90.0572 -242.939 700.96 0 0
-39.8955 -229.909 663.363 0 0
5.12098 -216.587 624.926 0 0
44.5801 -201.888 582.515 0 0
81.2916 -194.484 561.15 0 0
118.588 -192.777 556.225 0 0
151.038 -185.932 536.474 0 0
-118.181 -251.964 732.78 0 0
-63.3396 -234.33 681.493 0 0
-15.8581 -221.598 644.465 0 0
26.4922 -208.311 605.825 0 0
64.4828 -197.852 575.406 0 0
100.793 -192.113 558.718 0 0
137.476 -190.044 552.698 0 0
-150.068 -263.76 773.231 0 0
-88.2352 -239.362 701.707 0 0
-37.9279 -225.365 660.674 0 0
6.91334 -215.798 632.628 0 0
45.8162 -197.171 578.022 0 0
82.8501 -191.473 561.316 0 0
119.455 -188.704 553.199 0 0
-196.537 -293.124 866.257 0 0
-116.109 -247.809 732.339 0 0
-61.6428 -231.226 683.333 0 0
-14.1978 -219.641 649.095 0 0
28.341 -206.404 609.975 0 0
65.7327 -193.754 572.592 0 0
102.225 -188.883 558.197 0 0
139.714 -188 555.589 0 0
-147.774 -259.216 772.288 0 0
-86.6159 -236.341 704.136 0 0
-36.5009 -224.08 667.605 0 0
8.85711 -217.61 648.331 0 0
47.4502 -194.232 578.681 0 0
84.5764 -188.833 562.594 0 0
119.807 -183.899 547.894 0 0
-191.203 -283.983 853.023 0 0
-114.235 -244.079 733.159 0 0
-59.9754 -228.254 685.625 0 0
-12.5627 -218.514 656.368 0 0
30.395 -205.685 617.835 0 0
67.0735 -189.988 570.684 0 0
103.561 -185.492 557.178 0 0
141.117 -184.811 555.134 0 0
-145.653 -254.976 772.234 0 0
-85.1694 -233.804 708.112 0 0
-34.8921 -221.803 671.765 0 0
49.1833 -191.658 580.466 0 0
86.5579 -186.714 565.493 0 0
120.187 -179.237 542.847 0 0
-185.237 -273.945 836.611 0 0
-112.511 -240.67 734.989 0 0
-59.0026 -227.988 696.261 0 0
-10.9819 -219.182 669.368 0 0
32.5523 -205.262 626.857 0 0
68.7758 -187.256 571.868 0 0
104.679 -181.742 555.029 0 0
145.746 -185.742 567.244 0 0
-143.955 -251.475 774.453 0 0
-83.4159 -230.436 709.661 0 0
50.7034 -188.238 579.705 0 0
88.0392 -183.488 565.079 0 0
121.472 -175.981 541.958 0 0
-181.532 -267.283 830.125 0 0
-111.429 -238.638 741.158 0 0
-57.4292 -225.477 700.282 0 0
35.9141 -211.544 657.011 0 0
70.1554 -183.649 570.376 0 0
106.326 -178.926 555.705 0 0
137.638 -170.665 530.048 0 0
-142.378 -248.183 777.403 0 0
-82.4251 -229.195 717.927 0 0
52.3809 -185.398 580.736 0 0
88.8054 -178.832 560.169 0 0
123.464 -173.736 544.207 0 0
-179.017 -262.385 828.986 0 0
-109.999 -235.864 745.195 0 0
37.8375 -208.655 659.232 0 0
71.3472 -179.607 567.454 0 0
107.952 -176.063 556.26 0 0
137.546 -165.909 524.179 0 0
-140.86 -244.989 780.769 0 0
53.9298 -182.093 580.321 0 0
89.8709 -174.863 557.281 0 0
125.238 -171.153 545.456 0 0
-177.425 -258.837 832.15 0 0
-109.009 -234.037 752.42 0 0
40.3063 -208.501 670.323 0 0
72.5467 -175.653 564.717 0 0
109.738 -173.442 557.608 0 0
140.615 -164.963 530.348 0 0
-139.792 -242.571 786.769 0 0
-44.0527 -331.21 1074.27 0 0
55.9591 -180.348 584.953 0 0
91.6308 -172.262 558.724 0 0
-175.257 -254.441 832.652 0 0
41.3677 -201.089 658.06 0 0
74.8238 -174.274 570.308 0 0
-141.003 -244.088 805.982 0 0
-41.9778 -332.154 1096.78 0 0
57.9939 -178.492 589.383 0 0
92.037 -167.171 552.001 0 0
-174.38 -251.91 839.386 0 0
-112.593 -242.382 807.638 0 0
-72.9732 -308.127 1026.71 0 0
76.4006 -171.196 570.441 0 0
-143.609 -247.987 833.91 0 0
-105.693 -302.579 1017.49 0 0
-39.4712 -330.269 1110.6 0 0
63.3608 -186.314 626.521 0 0
93.838 -164.666 553.724 0 0
-173.397 -249.206 845.784 0 0
-120.387 -259.527 880.811 0 0
-72.2358 -311.435 1056.98 0 0
77.5077 -167.103 567.133 0 0
121.488 -174.613 592.62 0 0
-142.115 -244.78 838.542 0 0
-104.945 -302.885 1037.59 0 0
-36.5521 -325.236 1114.16 0 0
94.997 -161.038 551.665 0 0
-172.716 -246.915 853.848 0 0
-120.194 -259.493 897.345 0 0
-70.144 -309.171 1069.14 0 0
76.8315 -159.384 551.162 0 0
-140.605 -241.54 843.233 0 0
-102.279 -297.708 1039.32 0 0
-33.6583 -320.59 1119.2 0 0
96.0078 -157.208 548.823 0 0
-172.617 -245.425 865.049 0 0
-122.066 -263.938 930.304 0 0
-66.8675 -301.728 1063.5 0 0
-140.741 -241.112 858.115 0 0
-99.9549 -293.545 1044.72 0 0
-30.7946 -316.481 1126.36 0 0
-173.05 -244.649 879.259 0 0
-129.127 -279.653 1005.06 0 0
-63.6226 -294.351 1057.89 0 0
-141.913 -242.43 879.926 0 0
-97.5855 -289.275 1049.96 0 0
-27.7918 -311.174 1129.44 0 0
-176.244 -247.71 908.102 0 0
-130.962 -284.098 1041.5 0 0
-61.0664 -290.162 1063.73 0 0
13.0887 -326.713 1197.72 0 0
-145.505 -247.834 917.752 0 0
-95.8901 -287.051 1062.98 0 0
-24.7821 -305.957 1132.99 0 0
-180.459 -252.102 943.105 0 0
-128.74 -279.763 1046.58 0 0
-58.9992 -288.456 1079.1 0 0
16.251 -317.982 1189.56 0 0
-155.038 -263.264 995.034 0 0
-95.6252 -289.227 1093.17 0 0
-21.7807 -301.084 1137.98 0 0
57.3499 -308.429 1165.74 0 0
-185.557 -257.602 983.8 0 0
-126.278 -274.908 1049.89 0 0
-57.4028 -289.378 1105.15 0 0
19.3891 -309.666 1182.63 0 0
-160.218 -271.197 1046.65 0 0
-92.9393 -284.175 1096.73 0 0
-18.7693 -296.43 1144.03 0 0
60.2614 -300.684 1160.45 0 0
-192.128 -264.996 1033.62 0 0
-123.79 -270.003 1053.15 0 0
-55.7206 -290.311 1132.36 0 0
22.6117 -303.066 1182.11 0 0
-241.319 -279.902 1103.52 0 0
-158.415 -267.259 1053.68 0 0
-91.4992 -282.997 1115.73 0 0
-15.7343 -291.884 1150.76 0 0
63.4336 -294.341 1160.45 0 0
-194.634 -266.65 1062.73 0 0
-120.672 -263.722 1051.06 0 0
-53.215 -287.304 1145.05 0 0
25.7354 -295.369 1177.19 0 0
-237.134 -272.526 1098.11 0 0
-156.083 -262.421 1057.39 0 0
-89.0161 -278.672 1122.87 0 0
-12.5946 -285.726 1151.3 0 0
66.454 -287.342 1157.81 0 0
-192.25 -261.548 1065.62 0 0
-118.508 -259.529 1057.39 0 0
-50.3006 -282.254 1149.97 0 0
28.8436 -287.841 1172.74 0 0
105.904 -279.708 1139.6 0 0
-233.497 -265.8 1095.13 0 0
-153.846 -257.735 1061.9 0 0
-86.3285 -273.743 1127.86 0 0
-9.48755 -280.613 1156.17 0 0
69.4774 -280.441 1155.46 0 0
-190.886 -257.814 1074.33 0 0
-116.447 -255.568 1064.97 0 0
-47.0405 -275.284 1147.13 0 0
32.0152 -281.131 1171.49 0 0
108.962 -273.333 1139 0 0
-230.161 -259.427 1093.51 0 0
-151.885 -253.501 1068.53 0 0
-83.381 -268.013 1129.7 0 0
-6.38395 -276.75 1166.53 0 0
72.6366 -274.128 1155.47 0 0
-188.889 -253.201 1079.7 0 0
-114.409 -251.667 1073.16 0 0
-43.2941 -265.27 1131.17 0 0
35.1773 -274.413 1170.16 0 0
112.185 -267.37 1140.12 0 0
-226.989 -253.245 1092.63 0 0
-149.77 -249 1074.31 0 0
-80.1434 -261.349 1127.59 0 0
-3.21137 -271.73 1172.38 0 0
75.8818 -268.118 1156.8 0 0
-186.135 -247.561 1080.85 0 0
-112.234 -247.471 1080.46 0 0
-40.9275 -263.761 1151.58 0 0
38.2844 -267.378 1167.37 0 0
115.419 -261.402 1141.28 0 0
-224.358 -247.664 1094.36 0 0
-146.819 -243.102 1074.2 0 0
-77.5328 -256.746 1134.49 0 0
-0.0067738 -266.335 1176.86 0 0
78.9602 -261.517 1155.57 0 0
152.872 -253.146 1118.58 0 0
-184.363 -243.212 1087.83 0 0
-110.239 -243.683 1089.93 0 0
-38.0256 -259.141 1159.07 0 0
41.4374 -260.757 1166.3 0 0
118.457 -254.988 1140.5 0 0
390.536 -169.912 759.976 0 0
-221.993 -242.365 1097.45 0 0
-144.02 -237.455 1075.22 0 0
-74.7908 -251.753 1139.96 0 0
3.21171 -260.032 1177.45 0 0
82.1197 -255.202 1155.58 0 0
155.365 -246.136 1114.53 0 0
295.345 -158.028 715.567 0 0
-182.38 -238.56 1093.76 0 0
-108.793 -241.123 1105.52 0 0
-34.8574 -252.804 1159.07 0 0
44.5748 -254.093 1164.98 0 0
121.567 -248.737 1140.43 0 0
190.933 -238.058 1091.46 0 0
-219.167 -236.553 1098.33 0 0
-141.423 -232.139 1077.83 0 0
-71.7973 -245.94 1141.91 0 0
6.4423 -254.072 1179.67 0 0
85.4875 -249.495 1158.42 0 0
158.225 -239.761 1113.22 0 0
227.648 -232.956 1081.62 0 0
298.174 -154.569 717.669 0 0
368.228 -163.922 761.097 0 0
-179.917 -233.264 1096.98 0 0
-106.767 -237.293 1115.92 0 0
-31.6469 -246.14 1157.53 0 0
47.6995 -247.414 1163.52 0 0
124.441 -242.03 1138.2 0 0
194.281 -232.526 1093.51 0 0
262.023 -226.489 1065.12 0 0
-216.59 -231.002 1100.49 0 0
-138.444 -226.194 1077.58 0 0
-68.5905 -239.399 1140.49 0 0
9.68484 -248.084 1181.87 0 0
89.2002 -244.66 1165.55 0 0
160.947 -233.21 1111.01 0 0
229.247 -225.706 1075.26 0 0
301.848 -151.504 721.763 0 0
365.701 -157.773 751.628 0 0
-176.854 -227.184 1096.58 0 0
-103.857 -231.505 1117.44 0 0
-28.6543 -241.255 1164.49 0 0
50.9006 -241.152 1164 0 0
127.421 -235.564 1137.03 0 0
195.843 -224.909 1085.6 0 0
263.667 -219.611 1060.02 0 0
307.133 -200.681 968.653 0 0
355.066 -162.12 782.526 0 0
-214.137 -225.571 1103.35 0 0
-135.037 -219.551 1073.91 0 0
-65.6316 -233.729 1143.25 0 0
12.8708 -240.789 1177.78 0 0
92.8889 -239.585 1171.9 0 0
163.741 -226.8 1109.36 0 0
230.739 -218.458 1068.56 0 0
285.902 -205.615 1005.74 0 0
332.585 -192.833 943.218 0 0
305.718 -148.48 726.27 0 0
-258.955 -230.224 1141.37 0 0
-173.5 -220.735 1094.33 0 0
-100.738 -225.252 1116.72 0 0
-25.5061 -235.21 1166.09 0 0
54.1281 -234.987 1164.98 0 0
130.393 -229.11 1135.85 0 0
198.412 -218.536 1083.43 0 0
263.919 -211.694 1049.51 0 0
307.375 -193.868 961.131 0 0
343.497 -178.508 884.978 0 0
348.607 -154.043 763.689 0 0
-211.306 -219.731 1104.31 0 0
-131.152 -212.145 1066.19 0 0
-62.5645 -227.69 1144.31 0 0
16.0329 -233.515 1173.59 0 0
96.4874 -234.137 1176.72 0 0
166.962 -220.985 1110.62 0 0
233.238 -212.232 1066.63 0 0
287.215 -199.121 1000.73 0 0
327.897 -183.608 922.767 0 0
315.212 -148.036 743.993 0 0
-253.232 -221.706 1129.76 0 0
-170.431 -214.655 1093.83 0 0
-97.5546 -218.853 1115.22 0 0
-22.3728 -229.391 1168.92 0 0
57.3833 -228.901 1166.42 0 0
133.732 -223.292 1137.84 0 0
200.642 -211.841 1079.49 0 0
266.443 -205.69 1048.15 0 0
307.21 -186.915 952.474 0 0
345.463 -173.443 883.821 0 0
349.367 -149.301 760.799 0 0
-208.907 -214.33 1107.6 0 0
-128.491 -206.724 1068.29 0 0
-59.5851 -221.987 1147.17 0 0
19.1947 -226.555 1170.77 0 0
99.9408 -228.246 1179.51 0 0
169.641 -214.462 1108.28 0 0
235.65 -205.961 1064.35 0 0
288.034 -192.371 994.12 0 0
326.538 -176.466 911.93 0 0
326.519 -148.177 765.74 0 0
369.386 -144.477 746.619 0 0
-247.142 -212.943 1116.2 0 0
-166.64 -207.677 1088.6 0 0
-94.7319 -213.264 1117.88 0 0
-19.1564 -222.753 1167.62 0 0
60.8541 -223.562 1171.86 0 0
136.874 -217.121 1138.1 0 0
203.678 -206.025 1079.94 0 0
270.266 -200.672 1051.88 0 0
307.851 -180.557 946.439 0 0
343.328 -166.405 872.258 0 0
350.676 -144.823 759.13 0 0
-204.983 -207.367 1102.77 0 0
-125.824 -201.289 1070.45 0 0
-56.5376 -216.053 1148.96 0 0
22.3073 -219.293 1166.2 0 0
103.537 -222.597 1183.77 0 0
172.533 -208.237 1107.4 0 0
238.901 -200.429 1065.88 0 0
289.601 -186.196 990.186 0 0
326.218 -170.015 904.134 0 0
330.369 -144.761 769.834 0 0
370.798 -140.157 745.353 0 0
-243.256 -206.134 1112.38 0 0
-162.814 -200.677 1082.94 0 0
-91.7437 -207.305 1118.71 0 0
-15.927 -215.858 1164.86 0 0
64.467 -218.544 1179.36 0 0
140.238 -211.28 1140.16 0 0
206.016 -199.527 1076.73 0 0
272.063 -194.152 1047.72 0 0
307.878 -173.937 938.636 0 0
341.513 -159.673 861.663 0 0
355.498 -141.768 765.042 0 0
-201.984 -201.354 1102.86 0 0
-123.044 -195.669 1071.72 0 0
-53.4947 -210.155 1151.07 0 0
25.3945 -212.078 1161.6 0 0
107.424 -217.444 1190.99 0 0
175.599 -202.228 1107.65 0 0
241.047 -193.984 1062.49 0 0
291.794 -180.465 988.446 0 0
324.711 -163.074 893.191 0 0
331.091 -139.968 766.634 0 0
371.589 -135.628 742.862 0 0
-240.219 -200.055 1112.4 0 0
-158.209 -192.753 1071.79 0 0
-89.1226 -202.18 1124.22 0 0
-12.7362 -209.379 1164.24 0 0
68.5326 -214.735 1194.02 0 0
144.175 -206.221 1146.68 0 0
209.028 -193.705 1077.09 0 0
273.165 -187.216 1041.01 0 0
309.607 -168.35 936.105 0 0
340.879 -153.615 854.172 0 0
360.985 -138.893 772.307 0 0
-197.901 -194.276 1096.94 0 0
-120.161 -189.884 1072.14 0 0
-50.3254 -203.77 1150.54 0 0
28.5215 -205.381 1159.64 0 0
110.926 -211.403 1193.64 0 0
178.841 -196.409 1108.98 0 0
243.965 -188.187 1062.56 0 0
293.21 -174.297 984.13 0 0
325.385 -157.336 888.365 0 0
334.949 -136.495 770.688 0 0
374.214 -131.776 744.044 0 0
-236.825 -193.685 1110.74 0 0
-153.948 -185.292 1062.61 0 0
-86.3044 -196.615 1127.55 0 0
-9.55029 -202.939 1163.81 0 0
72.2172 -209.428 1201.02 0 0
148.259 -201.241 1154.07 0 0
212.238 -188.052 1078.44 0 0
275.114 -180.936 1037.63 0 0
310.285 -162.249 930.466 0 0
340.788 -147.893 848.136 0 0
364.201 -135.08 774.658 0 0
-194.258 -187.657 1093.31 0 0
-117.315 -184.155 1072.91 0 0
-47.2507 -197.774 1152.25 0 0
31.6221 -198.607 1157.11 0 0
114.772 -205.924 1199.74 0 0
182.59 -191.097 1113.35 0 0
246.76 -182.297 1062.08 0 0
294.532 -168.136 979.581 0 0
325.783 -151.535 882.862 0 0
342.202 -134.302 782.456 0 0
376.655 -127.847 744.85 0 0
-232.798 -186.817 1106.03 0 0
-150.563 -178.911 1059.23 0 0
-83.682 -191.503 1133.77 0 0
-6.37297 -196.696 1164.52 0 0
76.1373 -204.574 1211.16 0 0
152.319 -196.098 1160.98 0 0
215.376 -182.317 1079.39 0 0
278.07 -175.339 1038.08 0 0
312.347 -156.921 929.034 0 0
343.432 -143.392 848.94 0 0
365.591 -130.586 773.12 0 0
-190.002 -180.476 1086.06 0 0
-114.284 -178.137 1071.99 0 0
-44.1957 -191.885 1154.73 0 0
34.8145 -192.444 1158.09 0 0
118.975 -200.924 1209.12 0 0
186.448 -185.823 1118.24 0 0
249.076 -176.075 1059.58 0 0
296.668 -162.484 977.794 0 0
329.263 -147.186 885.733 0 0
346.232 -130.738 786.753 0 0
378.209 -123.617 743.902 0 0
-227.901 -179.297 1097.01 0 0
-147.87 -173.358 1060.68 0 0
-80.8073 -185.821 1136.93 0 0
-3.1913 -190.417 1165.05 0 0
80.2649 -199.988 1223.61 0 0
156.002 -190.373 1164.78 0 0
219.634 -177.473 1085.85 0 0
279.841 -169.019 1034.13 0 0
314.125 -151.475 926.786 0 0
345.309 -138.573 847.851 0 0
367.892 -126.424 773.513 0 0
-270.96 -181.026 1126.43 0 0
-185.308 -172.928 1076.04 0 0
-111.173 -171.996 1070.25 0 0
-41.0571 -185.653 1155.22 0 0
38.116 -186.78 1162.24 0 0
123.41 -196.11 1220.29 0 0
189.935 -180.118 1120.78 0 0
251.755 -170.136 1058.67 0 0
299.069 -156.996 976.908 0 0
331.508 -142.268 885.262 0 0
350.541 -127.22 791.628 0 0
-223.561 -172.266 1090.47 0 0
-145.308 -167.949 1063.15 0 0
-78.1452 -180.635 1143.45 0 0
-0.00669169 -183.66 1162.6 0 0
159.585 -184.467 1167.71 0 0
222.208 -171.233 1083.93 0 0
281.795 -162.862 1030.94 0 0
315.641 -145.938 923.811 0 0
347.145 -133.753 846.678 0 0
371.211 -122.593 776.032 0 0
-268.162 -175.051 1127.61 0 0
-181.558 -166.305 1071.28 0 0
-108.28 -166.196 1070.57 0 0
-37.8431 -179.071 1153.51 0 0
41.5765 -181.665 1170.22 0 0
194.048 -174.936 1126.87 0 0
255.108 -164.645 1060.58 0 0
300.083 -150.823 971.545 0 0
333.202 -137.13 883.338 0 0
354.632 -123.564 795.954 0 0
-219.155 -165.23 1083.43 0 0
-141.682 -161.317 1057.77 0 0
-75.186 -174.771 1145.99 0 0
3.17196 -177.347 1162.88 0 0
163.511 -178.886 1172.97 0 0
225.677 -165.679 1086.37 0 0
283.92 -156.843 1028.43 0 0
317.391 -140.544 921.559 0 0
350.237 -129.411 848.561 0 0
372.585 -118.113 774.479 0 0
-263.828 -168.089 1122.29 0 0
-177.642 -159.562 1065.35 0 0
-105.149 -160.031 1068.49 0 0
-34.5926 -172.28 1150.27 0 0
45.7817 -179.207 1196.52 0 0
199.389 -170.711 1139.8 0 0
257.937 -158.803 1060.29 0 0
302.515 -145.404 970.828 0 0
335.211 -132.141 882.27 0 0
357.296 -119.376 797.042 0 0
-215.714 -158.953 1081.02 0 0
-138.485 -155.192 1055.44 0 0
-72.0833 -168.575 1146.46 0 0
6.35282 -171.049 1163.28 0 0
166.836 -172.597 1173.81 0 0
230.374 -160.947 1094.58 0 0
288.245 -152.019 1033.86 0 0
320.1 -135.587 922.108 0 0
353.271 -125.025 850.28 0 0
375.657 -114.17 776.454 0 0
-258.684 -160.664 1113.35 0 0
-174.291 -153.351 1062.67 0 0
-102.543 -154.664 1071.77 0 0
-31.4345 -165.918 1149.76 0 0
49.9164 -175.708 1217.6 0 0
203.645 -165.407 1146.22 0 0
262.087 -153.742 1065.38 0 0
304.847 -139.949 969.802 0 0
336.553 -126.914 879.477 0 0
359.493 -115.024 797.083 0 0
-211.933 -152.45 1076.83 0 0
-135.279 -149.068 1052.94 0 0
-68.8879 -162.163 1145.43 0 0
9.52158 -164.5 1161.94 0 0
234.722 -155.863 1100.94 0 0
290.742 -146.201 1032.69 0 0
321.986 -130.289 920.294 0 0
356.268 -120.605 851.89 0 0
-253.913 -153.533 1105.83 0 0
-170.75 -146.994 1058.73 0 0
-99.7215 -148.966 1072.94 0 0
-28.2735 -159.529 1149.02 0 0
53.7477 -170.649 1229.11 0 0
207.955 -160.046 1152.74 0 0
266.478 -148.742 1071.32 0 0
307.645 -134.712 970.269 0 0
339.084 -122.152 879.804 0 0
360.889 -110.427 795.358 0 0
-207.372 -145.428 1068.49 0 0
-132.852 -143.8 1056.53 0 0
-65.6212 -155.579 1143.07 0 0
12.6444 -157.484 1157.07 0 0
239.427 -150.913 1108.79 0 0
293.333 -140.445 1031.88 0 0
324.769 -125.361 921.052 0 0
358.42 -115.89 851.47 0 0
380.371 -105.811 777.412 0 0
-251.172 -147.653 1107.07 0 0
-167.561 -140.957 1056.87 0 0
-96.7791 -143.087 1072.83 0 0
-25.1195 -153.167 1148.41 0 0
270.26 -143.339 1074.72 0 0
311.249 -129.804 973.244 0 0
342.522 -117.697 882.466 0 0
361.905 -105.741 792.821 0 0
-203.613 -139.014 1064.11 0 0
-129.626 -137.666 1053.78 0 0
-62.5106 -149.363 1143.33 0 0
15.7662 -150.767 1154.07 0 0
238.731 -142.625 1091.75 0 0
299.248 -136.212 1042.66 0 0
329.324 -121.075 926.785 0 0
360.748 -111.236 851.47 0 0
-246.748 -140.803 1100.83 0 0
-164.053 -134.672 1052.9 0 0
-94.0106 -137.461 1074.71 0 0
-21.9799 -146.886 1148.39 0 0
268.308 -135.003 1055.49 0 0
315.904 -125.275 979.428 0 0
345.531 -113.068 883.994 0 0
364.991 -101.663 794.823 0 0
-200.713 -133.203 1064.15 0 0
-126.564 -131.716 1052.27 0 0
-59.1208 -142.475 1138.23 0 0
300.286 -129.73 1036.41 0 0
332.157 -116.113 927.621 0 0
364.962 -107.135 855.895 0 0
-243.004 -134.378 1097.51 0 0
-160.455 -128.34 1048.19 0 0
-91.2864 -131.895 1077.23 0 0
316.771 -119.239 973.864 0 0
348.927 -108.54 886.483 0 0
367.89 -97.51 796.396 0 0
-196.905 -126.806 1059.32 0 0
-122.942 -125.204 1045.93 0 0
-55.1464 -134.153 1120.69 0 0
365.075 -101.835 850.707 0 0
-240.667 -128.733 1100.54 0 0
-156.78 -121.979 1042.81 0 0
-88.5349 -126.281 1079.58 0 0
370.415 -93.2436 797.143 0 0
-193.678 -120.808 1057.51 0 0
-120.219 -119.621 1047.12 0 0
-51.2561 -125.993 1102.9 0 0
355.394 -94.008 822.908 0 0
-236.655 -122.198 1095.89 0 0
-154.077 -116.389 1043.8 0 0
-85.3971 -120.116 1077.22 0 0
372.856 -88.9485 797.706 0 0
-190.819 -115.047 1057.69 0 0
-117.524 -114.059 1048.6 0 0
-48.0197 -119.413 1097.83 0 0
-233.313 -116.035 1094.27 0 0
-151.136 -110.619 1043.2 0 0
-82.5566 -114.371 1078.58 0 0
-274.296 -115.181 1114.96 0 0
-187.997 -109.304 1058.07 0 0
-114.638 -108.308 1048.43 0 0
-45.1797 -113.816 1101.75 0 0
-231.077 -110.413 1097.86 0 0
-148.389 -104.99 1043.93 0 0
-79.6203 -108.491 1078.74 0 0
-276.673 -111.267 1137.26 0 0
-185.614 -103.805 1060.98 0 0
-112.174 -102.945 1052.2 0 0
-42.2871 -108.097 1104.86 0 0
-227.935 -104.347 1097.18 0 0
-145.589 -99.3194 1044.32 0 0
-76.7654 -102.719 1080.06 0 0
-272.265 -104.551 1131.86 0 0
-182.938 -98.1249 1062.29 0 0
-110.063 -97.8729 1059.56 0 0
-39.1681 -101.8 1102.07 0 0
-224.096 -97.9817 1093.08 0 0
-143.156 -93.8866 1047.4 0 0
-74.2631 -97.4047 1086.65 0 0
-267.836 -97.8755 1126.24 0 0
-179.923 -92.2603 1061.63 0 0
-107.586 -92.4405 1063.7 0 0
-36.1635 -95.7959 1102.31 0 0
-220.04 -91.5614 1087.8 0 0
-140.791 -88.4741 1051.12 0 0
-71.2665 -91.4305 1086.25 0 0
-263.593 -91.3149 1121.29 0 0
-177.456 -86.669 1064.24 0 0
-104.802 -86.7276 1064.96 0 0
-33.1506 -89.7702 1102.32 0 0
-217.468 -85.7729 1089.81 0 0
-138.203 -82.8986 1053.29 0 0
-68.2486 -85.4312 1085.47 0 0
-258.342 -84.4702 1111.88 0 0
-175.385 -81.239 1069.35 0 0
-102.045 -81.0279 1066.57 0 0
-30.1459 -83.7676 1102.63 0 0
-214.001 -79.6332 1087.33 0 0
-136.512 -77.8178 1062.54 0 0
-65.1484 -79.3348 1083.26 0 0
-254.38 -78.1084 1107.86 0 0
-173.677 -75.9243 1076.88 0 0
-99.9221 -75.7986 1075.1 0 0
-27.2051 -77.9492 1105.6 0 0
-211.58 -73.8815 1090.17 0 0
-135.903 -73.2461 1080.8 0 0
-63.0961 -74.4856 1099.09 0 0
-251.659 -72.14 1109.21 0 0
-171.08 -70.1792 1079.06 0 0
-97.2389 -70.1054 1077.93 0 0
-24.3219 -72.3178 1111.95 0 0
-208.126 -67.7673 1087.69 0 0
-133.256 -67.4933 1083.3 0 0
-60.0379 -68.4156 1098.1 0 0
-248.191 -65.9603 1107.27 0 0
-167.616 -64.0833 1075.76 0 0
-95.3321 -64.9204 1089.81 0 0
-21.5214 -66.9829 1124.44 0 0
-206.163 -62.1253 1093.05 0 0
-130.483 -61.66 1084.86 0 0
-57.4333 -62.8468 1105.74 0 0
-244.939 -59.852 1106.25 0 0
-164.581 -58.1688 1075.14 0 0
-92.7397 -59.2094 1094.38 0 0
-18.4101 -60.7113 1122.14 0 0
-204.427 -56.4958 1099.78 0 0
-127.555 -55.7451 1085.17 0 0
-54.9054 -57.3182 1115.79 0 0
-241.121 -53.6275 1102.62 0 0
-162.769 -52.6558 1082.64 0 0
-89.8909 -53.3111 1096.11 0 0
-286.165 -52.2339 1137.92 0 0
-199.819 -50.082 1091.04 0 0
-124.375 -49.7272 1083.31 0 0
-51.9751 -51.3365 1118.37 0 0
-238.073 -47.5928 1102.46 0 0
-160.224 -46.8584 1085.45 0 0
-86.3434 -47.0186 1089.16 0 0
-280.182 -45.546 1126.37 0 0
-196.899 -44.1314 1091.38 0 0
-121.741 -43.9231 1086.23 0 0
-48.9663 -45.267 1119.47 0 0
-234.876 -41.5334 1101.6 0 0
-157.731 -41.0476 1088.72 0 0
-83.3031 -41.0332 1088.33 0 0
-277.36 -39.4249 1127.41 0 0
-193.129 -38.0102 1086.96 0 0
-119.213 -38.1259 1090.27 0 0
-45.7378 -39.0034 1115.36 0 0
-231.842 -35.5075 1101.49 0 0
-154.565 -35.0526 1087.38 0 0
-80.7278 -35.258 1093.75 0 0
-273 -33.1064 1122.16 0 0
-190.781 -32.173 1090.52 0 0
-115.494 -31.961 1083.33 0 0
-328.166 -31.8191 1188.65 0 0
-227.395 -29.3008 1094.58 0 0
-150.298 -28.8595 1078.09 0 0
-77.6285 -29.2373 1092.21 0 0
-269.327 -26.9112 1119.64 0 0
-188.331 -26.2853 1093.6 0 0
-112.047 -25.9261 1078.65 0 0
-39.9768 -27.0359 1124.83 0 0
-223.904 -23.2651 1092.15 0 0
-147.681 -23.0172 1080.51 0 0
-74.3759 -23.1831 1088.3 0 0
-264.812 -20.6767 1113.52 0 0
-184.009 -20.1608 1085.74 0 0
-109.332 -20.0721 1080.96 0 0
-36.8795 -20.8738 1124.14 0 0
-220.874 -17.291 1091.92 0 0
-144.545 -17.0886 1079.14 0 0
-71.8155 -17.3335 1094.61 0 0
-260.352 -14.5103 1107.5 0 0
-179.296 -14.0881 1075.27 0 0
-106.285 -14.1504 1080.03 0 0
-33.698 -14.6809 1120.52 0 0
-218.583 -11.3576 1095.4 0 0
-141.314 -11.1668 1077 0 0
-69.102 -11.3954 1099.04 0 0
-256.93 -8.44279 1105.8 0 0
-176.332 -8.20856 1075.12 0 0
-103.864 -8.28841 1085.58 0 0
-301.872 -5.58045 1138.5 0 0
-214.937 -5.35296 1092.09 0 0
-137.035 -5.22809 1066.61 0 0
-66.1233 -5.38913 1099.47 0 0
-251.938 -2.37895 1097.22 0 0
-173.116 -2.32729 1073.4 0 0
-100.453 -2.34336 1080.81 0 0
-295.762 0.637113 1127.07 0 0
-211.26 0.615322 1088.53 0 0
-133.875 0.601836 1064.67 0 0
-63.3301 0.623595 1103.16 0 0
-246.789 3.58817 1087.75 0 0
-170.394 3.54524 1074.74 0 0
-96.9558 3.54542 1074.79 0 0
-289.223 6.71837 1113.76 0 0
-207.981 6.55656 1086.94 0 0
-131.171 6.43232 1066.34 0 0
-60.2497 6.64726 1101.97 0 0
-356.761 10.692 1219.77 0 0
-242.895 9.49874 1083.64 0 0
-167.229 9.40791 1073.28 0 0
-94.9332 9.51287 1085.25 0 0
-284.213 12.7192 1106.11 0 0
-204.106 12.4436 1082.15 0 0
-128.627 12.2973 1069.42 0 0
-57.0522 12.6306 1098.4 0 0
-240.561 15.4632 1086.48 0 0
-164.054 15.2529 1071.7 0 0
-92.0587 15.4613 1086.34 0 0
-279.623 18.6616 1099.95 0 0
-199.725 18.2296 1074.49 0 0
-125.433 18.1047 1067.12 0 0
-340.069 23.3406 1184.84 0 0
-237.816 21.4231 1087.5 0 0
-160.584 21.041 1068.11 0 0
-89.5251 21.5048 1091.65 0 0
-277.502 24.7538 1103.47 0 0
-195.546 23.9516 1067.71 0 0
-122.344 23.9048 1065.62 0 0
-51.7298 24.9696 1113.09 0 0
-232.829 27.1336 1078.18 0 0
-157.372 26.8302 1066.12 0 0
-86.1998 27.3644 1087.35 0 0
-274.429 30.78 1103.24 0 0
-192.829 29.8197 1068.82 0 0
-119.795 29.8211 1068.87 0 0
-322.531 35.0919 1145.56 0 0
-229.553 32.9806 1076.64 0 0
-153.921 32.5452 1062.42 0 0
-83.1778 33.2888 1086.7 0 0
-270.211 36.6482 1098.35 0 0
-189.877 35.6573 1068.66 0 0
-117.033 35.7131 1070.33 0 0
-45.4284 36.9638 1107.81 0 0
-226.578 38.861 1076.48 0 0
-150.974 38.3424 1062.12 0 0
-80.164 39.2085 1086.11 0 0
-267.373 42.6789 1099.03 0 0
-186.297 41.3531 1064.89 0 0
-113.982 41.5188 1069.15 0 0
-319.203 48.0589 1156.19 0 0
-223.71 44.7609 1076.84 0 0
-148.065 44.1471 1062.08 0 0
-76.5568 44.7727 1077.13 0 0
-264.171 48.6506 1098.2 0 0
-183.421 47.1837 1065.09 0 0
-111.485 47.5452 1073.25 0 0
-310.686 53.4581 1136.59 0 0
-219.4 50.3342 1070.18 0 0
-144.738 49.8074 1058.97 0 0
-73.9343 50.8826 1081.84 0 0
-259.687 54.3443 1091.97 0 0
-180.299 52.9444 1063.84 0 0
-108.521 53.3977 1072.95 0 0
-304.226 59.0211 1124.2 0 0
-217.778 56.5231 1076.62 0 0
-141.879 55.6109 1059.24 0 0
-71.2273 56.997 1085.65 0 0
-257.22 60.4357 1094.18 0 0
-177.144 58.6787 1062.37 0 0
-105.574 59.2554 1072.81 0 0
-298.565 64.607 1114.54 0 0
-214.439 62.2936 1074.63 0 0
-139.36 61.5677 1062.11 0 0
-68.2423 62.9161 1085.37 0 0
-253.397 66.2 1090.6 0 0
-174.973 64.7575 1066.83 0 0
-102.582 65.0825 1072.19 0 0
-292.934 70.0815 1104.79 0 0
-211.48 68.1614 1074.52 0 0
-136.365 67.3288 1061.4 0 0
-65.6676 69.2631 1091.89 0 0
-249.72 71.9616 1087.57 0 0
-172.187 70.6431 1067.64 0 0
-99.8847 71.11 1074.69 0 0
-288.906 75.8567 1100.95 0 0
-208.608 74.0588 1074.86 0 0
-133.57 73.1897 1062.24 0 0
-62.3259 74.8037 1085.67 0 0
-323.219 78.4293 1094.85 0 0
-246.004 77.6725 1084.29 0 0
-169.723 76.6851 1070.51 0 0
-96.6858 76.7777 1071.8 0 0
-285.065 81.6372 1097.75 0 0
-206.12 80.1101 1077.21 0 0
-130.812 79.0844 1063.42 0 0
-335.731 88.5021 1147.87 0 0
-242.901 83.5521 1083.67 0 0
-166.678 82.4786 1069.74 0 0
-94.2458 83.0687 1077.4 0 0
-280.301 87.0906 1090.89 0 0
-203.239 86.026 1077.55 0 0
-128.433 85.2489 1067.82 0 0
-328.455 93.598 1133.58 0 0
-239.109 89.1671 1079.92 0 0
-163.955 88.435 1071.05 0 0
-91.7456 89.3921 1082.64 0 0
-276.049 92.6282 1085.89 0 0
-199.591 91.5942 1073.77 0 0
-126.06 91.4821 1072.45 0 0
-321.335 98.5617 1119.57 0 0
-235.136 94.6598 1075.25 0 0
-160.738 94.1208 1069.13 0 0
-88.898 95.4307 1084.01 0 0
-271.965 98.1617 1081.45 0 0
-196.586 97.4297 1073.39 0 0
-123.355 97.5246 1074.43 0 0
-315.208 103.674 1108.79 0 0
-232.609 100.717 1077.16 0 0
-157.952 100.052 1070.06 0 0
-86.5044 102.028 1091.19 0 0
-266.976 103.287 1073.28 0 0
-193.338 103.13 1071.65 0 0
-120.63 103.58 1076.32 0 0
-310.207 109.042 1101.79 0 0
-229.5 106.529 1076.38 0 0
-155.483 106.214 1073.2 0 0
-83.6865 108.207 1093.34 0 0
-262.873 108.672 1068.53 0 0
-189.704 108.585 1067.68 0 0
-117.913 109.673 1078.38 0 0
-304.519 114.063 1092.19 0 0
-226.39 112.33 1075.59 0 0
-152.219 111.838 1070.88 0 0
-80.6268 114.083 1092.38 0 0
-259.32 114.234 1065.93 0 0
-187.026 114.57 1069.06 0 0
-115.104 115.708 1079.68 0 0
-300.26 119.527 1087.58 0 0
-223.269 118.115 1074.72 0 0
-149.535 117.884 1072.62 0 0
-77.4048 119.69 1089.06 0 0
-348.619 127.126 1128.64 0 0
-255.963 119.854 1064.08 0 0
-184.902 120.936 1073.69 0 0
-112.291 121.76 1081 0 0
-296.498 125.14 1084.69 0 0
-220.396 124.026 1075.03 0 0
-147.219 124.268 1077.13 0 0
-74.4754 125.724 1089.75 0 0
-335.453 129.407 1095.71 0 0
-252.973 125.631 1063.74 0 0
-182.291 127.031 1075.6 0 0
-109.672 128.063 1084.33 0 0
-291.517 130.169 1077.24 0 0
-216.095 129.089 1068.3 0 0
-144.817 130.645 1081.18 0 0
-71.5813 131.838 1091.04 0 0
-341.696 139.159 1126.16 0 0
-249.247 131.016 1060.26 0 0
-179.853 133.283 1078.61 0 0
-107.088 134.467 1088.19 0 0
-287.501 135.553 1073.24 0 0
-212.308 134.381 1063.95 0 0
-141.904 136.597 1081.5 0 0
-69.3934 139.398 1103.68 0 0
-335.591 144.017 1116.1 0 0
-245.153 136.148 1055.12 0 0
-175.905 138.394 1072.51 0 0
-104.39 140.789 1091.08 0 0
-282.739 140.512 1066.34 0 0
-209.4 140.198 1063.96 0 0
-139.027 142.591 1082.12 0 0
-67.3342 147.53 1119.6 0 0
-327.997 148.068 1100.85 0 0
-241.718 141.594 1052.71 0 0
-172.87 144.171 1071.87 0 0
-101.887 147.448 1096.24 0 0
-277.237 144.988 1056.48 0 0
-206.431 145.971 1063.64 0 0
-136.227 148.678 1083.37 0 0
-64.2994 153.712 1120.05 0 0
-321.366 152.369 1088.58 0 0
-238.706 147.266 1052.12 0 0
-169.61 149.739 1069.79 0 0
-99.1653 153.867 1099.28 0 0
-273.825 150.476 1054.46 0 0
-203.464 151.741 1063.33 0 0
-133.147 154.464 1082.41 0 0
-61.3739 160.19 1122.53 0 0
-315.72 156.992 1079.45 0 0
-235.055 152.515 1048.66 0 0
-167.041 155.919 1072.07 0 0
-96.3632 160.214 1101.6 0 0
-270.611 156.049 1053.17 0 0
-200.511 157.518 1063.08 0 0
-130.388 160.626 1084.06 0 0
-58.3218 166.373 1122.85 0 0
-310.336 161.626 1071.05 0 0
-231.633 157.869 1046.16 0 0
-163.965 161.637 1071.12 0 0
-93.4887 166.479 1103.21 0 0
-267.23 161.503 1051.2 0 0
-197.433 163.187 1062.16 0 0
-127.547 166.712 1085.1 0 0
-55.5515 173.445 1128.92 0 0
-306.081 166.758 1066.42 0 0
-228.47 163.371 1044.77 0 0
-161.538 168.013 1074.45 0 0
-90.5143 172.589 1103.72 0 0
-360.47 179.328 1127.11 0 0
-263.902 166.962 1049.39 0 0
-193.893 168.441 1058.68 0 0
-124.486 172.514 1084.28 0 0
-52.9714 181.348 1139.81 0 0
-302.446 172.178 1063.89 0 0
-225.629 169.094 1044.84 0 0
-158.79 174.094 1075.73 0 0
-87.5433 178.717 1104.3 0 0
-347.822 180.525 1096.94 0 0
-260.381 172.267 1046.77 0 0
-190.36 173.645 1055.14 0 0
-121.956 179.079 1088.15 0 0
-50.0455 188.293 1144.14 0 0
-297.304 176.666 1055.96 0 0
-222.696 174.745 1044.47 0 0
-155.857 179.984 1075.78 0 0
-84.8642 185.496 1108.73 0 0
-353.059 190.976 1123.14 0 0
-256.73 177.444 1043.56 0 0
-187.421 179.362 1054.83 0 0
-118.612 184.453 1084.77 0 0
-46.9832 194.818 1145.73 0 0
-292.671 181.357 1049.69 0 0
-219.479 180.158 1042.75 0 0
-153.375 186.422 1079.01 0 0
-81.798 191.474 1108.25 0 0
-350.336 197.312 1124.25 0 0
-253.155 182.628 1040.59 0 0
-184.63 185.22 1055.36 0 0
-115.85 190.717 1086.67 0 0
-288.889 186.506 1046.39 0 0
-216.089 185.396 1040.16 0 0
-150.753 192.74 1081.36 0 0
-79.1211 198.416 1113.21 0 0
-338.849 198.529 1097.01 0 0
-250.01 188.091 1039.34 0 0
-181.267 190.487 1052.58 0 0
-112.964 196.804 1087.48 0 0
-286.194 192.338 1046.99 0 0
-213.024 190.883 1039.07 0 0
-147.726 198.556 1080.84 0 0
-76.3842 205.324 1117.68 0 0
-331.444 201.842 1082.62 0 0
-247.045 193.675 1038.81 0 0
-178.576 196.446 1053.68 0 0
-110.35 203.41 1091.03 0 0
-282.896 197.757 1045.38 0 0
-210.434 196.798 1040.31 0 0
-144.951 204.717 1082.17 0 0
-73.445 211.769 1119.45 0 0
-325.412 205.817 1072.49 0 0
-243.932 199.131 1037.65 0 0
-175.771 202.293 1054.13 0 0
-108.21 211.018 1099.59 0 0
-280.174 203.57 1045.89 0 0
-206.513 201.434 1034.91 0 0
-142.154 210.873 1083.41 0 0
-70.3557 217.798 1118.98 0 0
-320.703 210.514 1066.58 0 0
-240.523 204.317 1035.18 0 0
-172.887 208.053 1054.11 0 0
-106.115 218.907 1109.1 0 0
-276.583 208.736 1043.13 0 0
-203.727 207.136 1035.13 0 0
-139.458 217.209 1085.47 0 0
-67.3533 224.102 1119.92 0 0
-317.02 215.822 1064 0 0
-237.663 209.95 1035.05 0 0
-170.267 214.144 1055.73 0 0
-103.881 226.712 1117.69 0 0
-371.511 230.906 1123.23 0 0
-272.831 213.732 1039.69 0 0
-201.243 213.161 1036.91 0 0
-136.65 223.403 1086.73 0 0
-64.2181 229.96 1118.63 0 0
-312.109 220.226 1057.22 0 0
-234.935 215.701 1035.5 0 0
-166.872 219.247 1052.52 0 0
-101.236 233.768 1122.23 0 0
-351.111 225.897 1070.4 0 0
-269.452 218.98 1037.62 0 0
-197.761 218.115 1033.53 0 0
-133.889 229.703 1088.43 0 0
-60.9951 235.437 1115.61 0 0
-308.127 225.207 1053.49 0 0
-231.453 220.741 1032.59 0 0
-164.251 225.352 1054.17 0 0
-98.3291 240.297 1124.07 0 0
-346.305 230.498 1064.62 0 0
-266.181 224.286 1035.93 0 0
-194.85 223.667 1033.07 0 0
-131.351 236.441 1092.07 0 0
-57.8143 240.988 1113.08 0 0
-305.078 230.838 1052.9 0 0
-228.166 225.926 1030.49 0 0
-161.766 231.684 1056.76 0 0
-94.6592 244.897 1117.03 0 0
-344.18 236.858 1067.06 0 0
-263.196 229.816 1035.33 0 0
-191.797 229.04 1031.84 0 0
-128.73 243.098 1095.17 0 0
-54.4639 245.685 1106.82 0 0
-301.541 236.078 1050.61 0 0
-225.098 231.301 1029.35 0 0
-158.839 237.403 1056.5 0 0
-91.3961 250.428 1114.47 0 0
-336.314 239.172 1051.58 0 0
-259.822 234.983 1033.16 0 0
-189.557 235.402 1035.01 0 0
-126.806 251.205 1104.49 0 0
-51.4588 251.835 1107.26 0 0
-298.53 241.709 1050.12 0 0
-222.125 236.758 1028.61 0 0
-156.117 243.436 1057.62 0 0
-88.0071 255.526 1110.15 0 0
-350.092 257.152 1104.1 0 0
-257.438 241.043 1034.93 0 0
-186.224 240.41 1032.22 0 0
-124.595 258.921 1111.69 0 0
-48.2714 257.032 1103.58 0 0
-295.411 247.242 1049.23 0 0
-218.699 241.704 1025.73 0 0
-153.542 249.733 1059.81 0 0
-84.5192 260.199 1104.22 0 0
-345.095 261.688 1097.8 0 0
-254.515 246.61 1034.55 0 0
-184.038 246.905 1035.79 0 0
-121.997 265.96 1115.73 0 0
-45.0672 261.975 1099.01 0 0
-291.938 252.454 1047.06 0 0
-216.424 247.916 1028.24 0 0
-150.589 255.432 1059.41 0 0
-81.2878 265.54 1101.33 0 0
-340.426 266.384 1092.45 0 0
-251.169 251.746 1032.42 0 0
-181.314 252.718 1036.41 0 0
-118.714 271.525 1113.54 0 0
-288.711 257.853 1045.74 0 0
-213.217 253.067 1026.33 0 0
-147.672 261.186 1059.26 0 0
-78.001 270.602 1097.45 0 0
-337.166 272.135 1091.56 0 0
-247.997 257.028 1030.97 0 0
-178.287 258.103 1035.28 0 0
-114.946 275.875 1106.57 0 0
-285.662 263.394 1045.05 0 0
-209.797 257.922 1023.33 0 0
-145.483 268.279 1064.43 0 0
-74.7131 275.539 1093.23 0 0
-333.584 277.604 1089.61 0 0
-244.98 262.451 1030.13 0 0
-175.721 264.158 1036.83 0 0
-111.556 281.006 1102.96 0 0
-283.313 269.59 1046.92 0 0
-206.999 263.516 1023.33 0 0
-142.636 274.218 1064.89 0 0
-71.4962 280.618 1089.75 0 0
-327.928 281.265 1080.78 0 0
-241.945 267.841 1029.2 0 0
-173.445 270.699 1040.18 0 0
-108.076 285.805 1098.23 0 0
-279.844 274.717 1044.65 0 0
-205.434 270.734 1029.51 0 0
-140.065 280.722 1067.49 0 0
-68.251 285.461 1085.51 0 0
-324.837 287.052 1080.33 0 0
-239.193 273.536 1029.46 0 0
-170.715 276.568 1040.87 0 0
-104.788 291.015 1095.24 0 0
-276.626 280.062 1043.29 0 0
-202.312 275.942 1027.94 0 0
-137.812 287.946 1072.66 0 0
-65.1998 291.02 1084.11 0 0
-320.658 291.842 1076.21 0 0
-236.627 279.458 1030.54 0 0
-167.474 281.592 1038.42 0 0
-101.427 295.929 1091.28 0 0
-273.64 285.624 1042.77 0 0
-199.698 281.838 1028.95 0 0
-135.578 295.33 1078.21 0 0
-61.9616 295.636 1079.32 0 0
-315.772 295.905 1069.63 0 0
-234.046 285.379 1031.58 0 0
-165.276 288.387 1042.46 0 0
-98.1445 300.978 1087.97 0 0
-366.929 312.516 1118.63 0 0
-270.195 290.686 1040.49 0 0
-196.748 287.263 1028.23 0 0
-133.416 303.008 1084.59 0 0
-58.9883 301.419 1078.9 0 0
-312.861 301.764 1069.67 0 0
-230.965 290.69 1030.42 0 0
-162.657 294.503 1043.94 0 0
-94.9246 306.132 1085.16 0 0
-347.958 304.697 1069.71 0 0
-267.567 296.614 1041.33 0 0
-194.361 293.524 1030.48 0 0
-131.662 311.806 1094.66 0 0
-56.046 307.354 1079.03 0 0
-309.551 307.229 1068.34 0 0
-227.711 295.755 1028.44 0 0
-159.962 300.509 1044.97 0 0
-91.6995 311.186 1082.1 0 0
-360.775 324.713 1118.51 0 0
-264.182 301.692 1039.21 0 0
-190.826 298.035 1026.61 0 0
-128.825 318.172 1095.98 0 0
-52.885 312.005 1074.73 0 0
-306.223 312.652 1066.92 0 0
-225.264 301.865 1030.11 0 0
-157.424 306.841 1047.09 0 0
-88.4852 316.185 1078.97 0 0
-359.507 332.482 1124.1 0 0
-261.312 307.338 1039.09 0 0
-188.404 304.267 1028.71 0 0
-125.508 323.337 1093.18 0 0
-49.9137 317.667 1074.01 0 0
-302.012 317.126 1062.36 0 0
-222.582 307.682 1030.73 0 0
-154.78 313.007 1048.57 0 0
-85.3213 321.275 1076.27 0 0
-357.762 339.889 1128.29 0 0
-258.407 312.94 1038.83 0 0
-185.711 310.09 1029.37 0 0
-121.954 327.793 1088.13 0 0
-46.9044 323.032 1072.33 0 0
-298.728 322.524 1061.02 0 0
-219.333 312.7 1028.7 0 0
-152.558 320.09 1053.01 0 0
-82.1163 326.114 1072.83 0 0
-365.319 356.44 1162.14 0 0
-255.522 318.563 1038.65 0 0
-182.94 315.792 1029.61 0 0
-118.647 332.806 1085.09 0 0
-296.069 328.591 1061.88 0 0
-215.911 317.427 1025.8 0 0
-150.332 327.268 1057.6 0 0
-79.052 331.427 1071.04 0 0
-349.331 349.958 1121.03 0 0
-253.02 324.674 1040.03 0 0
-180.084 321.345 1029.37 0 0
-115.273 337.546 1081.27 0 0
-293.172 334.403 1061.9 0 0
-213.258 323.264 1026.53 0 0
-147.734 333.712 1059.71 0 0
-76.1015 337.181 1070.72 0 0
-327.11 336.387 1059.01 0 0
-249.892 329.982 1038.85 0 0
-177.394 327.202 1030.09 0 0
-112.101 342.794 1079.18 0 0
-290.023 339.919 1061 0 0
-210.178 328.448 1025.19 0 0
-145.346 340.696 1063.42 0 0
-73.1755 343.038 1070.73 0 0
-323.264 341.172 1055.9 0 0
-246.542 334.969 1036.7 0 0
-174.998 333.633 1032.57 0 0
-108.804 347.586 1075.75 0 0
-286.845 345.386 1059.97 0 0
-207.255 333.857 1024.59 0 0
-142.995 347.863 1067.58 0 0
-70.0603 347.956 1067.86 0 0
-321.409 348.061 1059.3 0 0
-243.695 340.617 1036.64 0 0
-172.152 339.231 1032.42 0 0
-105.604 352.598 1073.11 0 0
-283.671 350.837 1058.94 0 0
-204.844 340.107 1026.55 0 0
-140.477 354.709 1070.62 0 0
-66.9469 352.768 1064.77 0 0
-322.445 358.22 1072.37 0 0
-240.918 346.366 1036.89 0 0
-169.457 345.135 1033.2 0 0
-102.172 356.723 1067.89 0 0
-280.437 356.196 1057.66 0 0
-201.885 345.456 1025.77 0 0
-138.199 362.263 1075.67 0 0
-63.9069 357.864 1062.61 0 0
-313.769 357.537 1053.09 0 0
-237.956 351.846 1036.33 0 0
-167.15 351.871 1036.41 0 0
-98.9579 361.485 1064.72 0 0
-277.18 361.501 1056.27 0 0
-199.197 351.269 1026.37 0 0
-135.806 369.633 1080.03 0 0
-60.9513 363.369 1061.72 0 0
-325.945 380.886 1104.09 0 0
-234.778 356.986 1034.81 0 0
-164.422 357.766 1037.07 0 0
-95.8157 366.419 1062.15 0 0
-274.371 367.38 1056.57 0 0
-196.371 356.842 1026.26 0 0
-133.145 376.358 1082.39 0 0
-58.0236 369.011 1061.26 0 0
-311.999 373.828 1066.73 0 0
-231.483 361.913 1032.73 0 0
-161.569 363.395 1036.95 0 0
-92.6845 371.312 1059.55 0 0
-271.101 372.631 1055.08 0 0
-193.4 362.142 1025.38 0 0
-129.733 380.944 1078.62 0 0
-54.9387 373.561 1057.71 0 0
-313.345 384.895 1081.44 0 0
-228.336 367.038 1031.26 0 0
-159.057 369.812 1039.06 0 0
-89.7077 376.767 1058.6 0 0
-268.401 378.659 1055.8 0 0
-190.851 368.238 1026.75 0 0
-126.166 384.954 1073.36 0 0
-51.883 378.145 1054.37 0 0
-308.766 388.763 1075.78 0 0
-225.056 371.914 1029.15 0 0
-156.716 376.694 1042.38 0 0
-86.418 380.808 1053.77 0 0
-265.254 384.052 1054.76 0 0
-188.3 374.36 1028.15 0 0
-122.523 388.572 1067.18 0 0
-303.089 391.113 1066.15 0 0
-221.897 376.953 1027.55 0 0
-154.28 383.419 1045.18 0 0
-83.4032 385.947 1052.07 0 0
-261.681 388.794 1051.99 0 0
-185.41 379.816 1027.7 0 0
-119.104 392.751 1062.7 0 0
-305.799 404.38 1086.13 0 0
-219.062 382.524 1027.43 0 0
-151.845 390.218 1048.09 0 0
-80.3942 391.051 1050.33 0 0
-258.675 394.346 1051.46 0 0
-182.475 385.169 1026.99 0 0
-116.082 398.16 1061.63 0 0
-300.546 407.221 1077.94 0 0
-215.935 387.569 1025.92 0 0
-149.559 397.486 1052.17 0 0
-77.3592 395.953 1048.11 0 0
-255.673 399.895 1050.94 0 0
-179.748 390.957 1027.45 0 0
-112.631 402.004 1056.48 0 0
-300.599 417.279 1088.8 0 0
-213.216 393.336 1026.33 0 0
-147.292 404.912 1056.53 0 0
-74.3316 400.806 1045.82 0 0
-252.353 404.922 1049.08 0 0
-177.402 397.611 1030.14 0 0
-109.519 406.948 1054.33 0 0
-297.523 423.09 1088.44 0 0
-210.257 398.656 1025.58 0 0
-144.757 411.693 1059.12 0 0
-71.2771 405.409 1042.95 0 0
-0.00615179 415.454 1068.79 0 0
-248.915 409.718 1046.68 0 0
-174.624 403.33 1030.36 0 0
-106.359 411.634 1051.57 0 0
-292.202 425.623 1079.77 0 0
-207.081 403.535 1023.73 0 0
-142.185 418.432 1061.53 0 0
-68.3448 410.622 1041.71 0 0
2.91924 421.863 1070.23 0 0
-245.569 414.622 1044.62 0 0
-171.931 409.256 1031.1 0 0
-103.025 415.528 1046.9 0 0
-287.091 428.304 1071.71 0 0
-204.613 409.793 1025.39 0 0
-139.662 425.389 1064.41 0 0
-65.4453 415.986 1040.89 0 0
-243.199 421.172 1046.7 0 0
-169.345 415.465 1032.52 0 0
-99.9837 420.497 1045.03 0 0
-283.574 433.265 1069.49 0 0
-201.514 414.79 1023.89 0 0
-136.146 429.295 1059.69 0 0
-62.645 421.979 1041.63 0 0
-239.383 425.199 1042.55 0 0
-167.099 422.566 1036.09 0 0
-97.0595 425.913 1044.3 0 0
-280.414 438.741 1068.59 0 0
-199.192 421.396 1026.34 0 0
-133.359 435.446 1060.56 0 0
-59.6885 426.891 1039.73 0 0
-236.155 430.208 1040.88 0 0
-164.331 428.398 1036.5 0 0
-93.8354 429.929 1040.2 0 0
-276.837 443.532 1066.06 0 0
-196.07 426.319 1024.69 0 0
-129.748 438.836 1054.78 0 0
-233.023 435.364 1039.6 0 0
-162.297 436.212 1041.62 0 0
-90.9058 435.202 1039.21 0 0
-273.449 448.582 1064.22 0 0
-193.476 432.383 1025.79 0 0
-126.289 442.584 1049.99 0 0
-230.21 441.101 1039.73 0 0
-159.545 442.169 1042.24 0 0
-87.7152 439.131 1035.08 0 0
-357.838 473.693 1109.4 0 0
-269.878 453.288 1061.61 0 0
-191.023 438.796 1027.67 0 0
-122.897 446.427 1045.55 0 0
-227.374 446.798 1039.76 0 0
-157.177 449.242 1045.44 0 0
-84.7488 444.072 1033.41 0 0
-371.796 502.731 1162.53 0 0
-266.972 459.086 1061.6 0 0
-188.188 444.354 1027.53 0 0
-119.136 448.743 1037.68 0 0
-224.022 451.455 1037.4 0 0
-154.615 455.83 1047.45 0 0
-81.8187 449.143 1032.08 0 0
-263.361 463.64 1058.75 0 0
-185.281 449.732 1026.99 0 0
-116.319 454.492 1037.86 0 0
-287.21 449.507 1020.1 0 0
-221.093 456.932 1036.96 0 0
-152.472 463.745 1052.42 0 0
-78.9879 454.73 1031.96 0 0
-259.634 467.926 1055.36 0 0
-183.239 457.256 1031.29 0 0
-113.194 458.998 1035.22 0 0
-298.636 477.828 1071.09 0 0
-218.117 462.302 1036.28 0 0
-149.78 470.08 1053.72 0 0
-75.9538 459.082 1029.07 0 0
-255.792 471.93 1051.42 0 0
-180.985 464.343 1034.52 0 0
-110.014 463.181 1031.93 0 0
-297.249 486.203 1076.67 0 0
-214.968 467.278 1034.76 0 0
-147.175 476.732 1055.69 0 0
-73.3386 465.964 1031.85 0 0
-252.253 476.422 1048.66 0 0
-178.433 470.725 1036.12 0 0
-106.995 467.957 1030.03 0 0
-280.421 468.873 1025.87 0 0
-212.058 472.754 1034.36 0 0
-143.598 480.191 1050.64 0 0
-70.2607 469.883 1028.08 0 0
-248.618 480.669 1045.43 0 0
-175.749 476.794 1037 0 0
-104.082 473.145 1029.06 0 0
-209.41 478.819 1035.25 0 0
-140.204 484.13 1046.73 0 0
-245.644 486.153 1044.93 0 0
-172.904 482.434 1036.94 0 0
-101.147 478.193 1027.82 0 0
-206.943 485.329 1037.07 0 0
-137.093 488.962 1044.83 0 0
-64.4926 480.024 1025.73 0 0
-242.665 491.619 1044.41 0 0
-170.654 489.78 1040.5 0 0
-98.0822 482.555 1025.15 0 0
-298.531 533.056 1125.9 0 0
-203.743 490.12 1035.21 0 0
-133.988 493.757 1042.89 0 0
-239.047 495.746 1041.08 0 0
-167.925 495.806 1041.21 0 0
-95.3665 488.602 1026.08 0 0
-201.396 496.97 1037.7 0 0
-130.305 496.29 1036.28 0 0
-235.961 500.926 1040.02 0 0
-165.4 502.474 1043.24 0 0
-92.5921 494.373 1026.42 0 0
-297.4 554.739 1145.25 0 0
-198.343 502.095 1036.57 0 0
-127.211 500.926 1034.15 0 0
-232.887 506.109 1038.99 0 0
-162.963 509.474 1045.9 0 0
-89.5095 498.442 1023.25 0 0
-303.276 578.169 1180.3 0 0
-196.004 509.046 1039.19 0 0
-124.041 505.182 1031.3 0 0
-229.993 511.669 1038.75 0 0
-160.743 517.248 1050.07 0 0
-86.6488 503.666 1022.5 0 0
-17.1124 513.783 1043.04 0 0
-193.669 516.075 1041.91 0 0
-120.685 508.557 1026.73 0 0
-227.555 518.261 1040.58 0 0
-158.221 524.142 1052.39 0 0
-83.9103 509.598 1023.19 0 0
-271.634 540.914 1080.14 0 0
-190.983 522.213 1042.79 0 0
-117.205 511.231 1020.86 0 0
-224.45 523.343 1039.38 0 0
-156.577 534.101 1060.74 0 0
-81.2615 516.132 1025.05 0 0
-262.037 533.296 1053.42 0 0
-189.096 530.617 1048.13 0 0
-114.422 516.844 1020.93 0 0
-221.692 529.224 1039.77 0 0
-153.706 539.999 1060.94 0 0
-78.5551 522.371 1026.3 0 0
-258.345 537.365 1050.12 0 0
-186.463 537.016 1049.44 0 0
-111.571 522.143 1020.37 0 0
-219.538 536.59 1043.04 0 0
-150.56 544.91 1059.21 0 0
-255.707 543.6 1051.08 0 0
-182.807 540.425 1044.94 0 0
-108.754 527.585 1020.11 0 0
-216.925 542.888 1044.18 0 0
-146.469 546.24 1050.63 0 0
-72.4649 530.084 1019.56 0 0
-252.009 547.554 1047.65 0 0
-180.364 547.39 1047.33 0 0
-105.806 532.362 1018.58 0 0
-214.242 549.035 1045.02 0 0
-142.752 548.734 1044.44 0 0
-69.7174 535.961 1020.13 0 0
-248.53 551.915 1045.06 0 0
-178.821 557.231 1055.13 0 0
-102.77 536.615 1016.09 0 0
-33.5422 539.954 1022.41 0 0
-212.115 556.661 1048.62 0 0
-138.595 549.284 1034.72 0 0
-66.9346 541.584 1020.22 0 0
-246.537 559.588 1048.73 0 0
-176.471 564.708 1058.33 0 0
-100.469 544.753 1020.93 0 0
-209.282 562.485 1048.79 0 0
-134.615 550.232 1025.94 0 0
-64.2072 547.684 1021.19 0 0
-242.487 562.575 1043.64 0 0
-174.976 575.086 1066.85 0 0
-97.7055 550.487 1021.21 0 0
-206.614 568.765 1049.8 0 0
-131.541 554.705 1023.85 0 0
-240.435 570.179 1047.13 0 0
-171.821 580.114 1065.37 0 0
-94.391 553.005 1015.59 0 0
-289.019 602.732 1101.38 0 0
-204.677 577.135 1054.61 0 0
-128.011 557.122 1018.04 0 0
-236.814 574.064 1043.78 0 0
-169.402 587.649 1068.48 0 0
-91.3265 556.798 1012.39 0 0
-280.458 596.939 1080.01 0 0
-202.602 585.234 1058.83 0 0
-125.051 561.889 1016.59 0 0
-234.621 581.406 1046.73 0 0
-169.413 603.94 1087.29 0 0
-88.315 560.782 1009.6 0 0
-274.722 596.797 1069.17 0 0
-199.599 590.7 1058.25 0 0
-121.563 564.154 1010.69 0 0
-53.0338 569.93 1021.04 0 0
-231.547 586.59 1045.77 0 0
-167.632 614.247 1095.07 0 0
-85.6071 566.644 1010.21 0 0
