ply
format ascii 1.0
element vertex 1675
property float x
property float y
property float z
property float u
property float v
end_header
-1268.61 -846.713 2847.25 0 0
-1070.9 -844.236 2838.92 0 0
-159.617 -197.328 663.558 0 0
-128.275 -221.508 744.869 0 0
-99.3145 -284.32 956.086 0 0
90.7233 -822.651 2766.34 0 0
279.221 -821.058 2760.98 0 0
466.386 -818.409 2752.08 0 0
653.54 -817.269 2748.24 0 0
836.469 -812.535 2732.32 0 0
1016.13 -806.929 2713.47 0 0
1211.03 -813.29 2734.86 0 0
1386.03 -806.377 2711.62 0 0
1568.64 -804.993 2706.96 0 0
-1174.63 -844.101 2864.8 0 0
-136.932 -196.799 667.917 0 0
-107.616 -231.995 787.372 0 0
190.054 -819.532 2781.42 0 0
379.069 -817.255 2773.69 0 0
567.363 -815.461 2767.6 0 0
754.133 -812.921 2758.98 0 0
935.238 -806.512 2737.23 0 0
1111.98 -799.103 2712.08 0 0
1306.36 -804.679 2731.01 0 0
1497.52 -807.121 2739.3 0 0
1688.59 -808.98 2745.61 0 0
-1075.35 -838.233 2871.53 0 0
-155.968 -191.448 655.84 0 0
-125.868 -216.796 742.677 0 0
-96.9195 -279.723 958.245 0 0
99.5373 -817.818 2801.59 0 0
290.034 -815.14 2792.42 0 0
479.618 -813.042 2785.23 0 0
667.186 -809.689 2773.75 0 0
853.213 -806.363 2762.35 0 0
1030.58 -797.54 2732.13 0 0
1221.72 -800.452 2742.1 0 0
1415.1 -803.858 2753.77 0 0
1601.84 -803.135 2751.29 0 0
-134.195 -191.845 663.415 0 0
-105.238 -227.203 785.685 0 0
7.64119 -810.091 2801.35 0 0
199.693 -812.612 2810.07 0 0
390.385 -809.839 2800.48 0 0
582.179 -810.424 2802.51 0 0
768.875 -805.381 2785.06 0 0
953.009 -800.187 2767.11 0 0
1131.44 -792.714 2741.26 0 0
1330.41 -799.717 2765.48 0 0
1516.11 -797.987 2759.5 0 0
1730.39 -810.024 2801.12 0 0
-151.952 -185.153 646.382 0 0
-122.17 -209.871 732.675 0 0
-94.0749 -273.829 955.956 0 0
108.518 -812.402 2836.15 0 0
301.097 -809.092 2824.6 0 0
492.264 -806.056 2814 0 0
682.627 -803.779 2806.05 0 0
869.921 -799.68 2791.74 0 0
1047.99 -790.098 2758.29 0 0
1238.56 -791.429 2762.93 0 0
1440.89 -798.926 2789.11 0 0
1632.74 -799.543 2791.26 0 0
-131.636 -187.158 659.677 0 0
-103.588 -223.984 789.478 0 0
15.5816 -809.482 2853.19 0 0
210.119 -807.803 2847.27 0 0
402.515 -803.463 2831.97 0 0
594.879 -801.898 2826.45 0 0
785.037 -798.855 2815.73 0 0
971.287 -793.816 2797.97 0 0
1154.76 -788.539 2779.37 0 0
1358.44 -796.603 2807.79 0 0
1546.79 -794.794 2801.42 0 0
1766.84 -807.877 2847.53 0 0
-149.014 -180.203 641.343 0 0
-119.468 -204.668 728.414 0 0
-91.5729 -268.929 957.116 0 0
117.375 -804.472 2863.11 0 0
312.278 -802.544 2856.25 0 0
506.615 -801.203 2851.48 0 0
697.681 -796.873 2836.07 0 0
887.063 -792.919 2822 0 0
1068.47 -784.522 2792.11 0 0
1267.65 -789.74 2810.68 0 0
1462.63 -791.315 2816.29 0 0
1663.8 -795.483 2831.12 0 0
-181.398 -190.358 684.138 0 0
-128.848 -182.159 654.671 0 0
-102.443 -221.863 797.368 0 0
414.963 -797.02 2864.46 0 0
610.254 -796.428 2862.33 0 0
801.851 -792.473 2848.11 0 0
990.129 -787.422 2829.96 0 0
1175.05 -781.786 2809.71 0 0
1380.79 -789.644 2837.95 0 0
-145.757 -174.892 634.791 0 0
-116.943 -199.773 725.099 0 0
-88.8632 -263.419 956.111 0 0
712.626 -789.336 2864.98 0 0
905.752 -787.028 2856.61 0 0
1092.65 -781.091 2835.06 0 0
1290.82 -783.779 2844.82 0 0
-172.331 -179.137 656.713 0 0
-126.587 -177.918 652.246 0 0
-102.498 -222.35 815.131 0 0
1009.84 -781.213 2863.92 0 0
-142.826 -169.998 629.52 0 0
-114.198 -194.509 720.287 0 0
-85.9794 -257.383 953.113 0 0
-167.433 -172.352 644.761 0 0
-125.161 -174.85 654.106 0 0
-107.272 -233.111 872.057 0 0
-139.246 -164.363 621.227 0 0
-112.551 -191.119 722.355 0 0
-83.2656 -251.844 951.872 0 0
-162.468 -165.564 632.299 0 0
-113.15 -246.329 940.746 0 0
-136.342 -159.555 615.778 0 0
-110.777 -187.509 723.663 0 0
-80.512 -246.176 950.082 0 0
-157.667 -159.008 620.21 0 0
-111.53 -243.262 948.846 0 0
-134.075 -155.511 613.109 0 0
-109.229 -184.278 726.523 0 0
-77.7175 -240.372 947.674 0 0
-153.226 -152.878 609.294 0 0
-109.2 -238.65 951.136 0 0
-159.33 -139.094 560.464 0 0
-130.854 -150.384 605.956 0 0
-107.704 -181.081 729.645 0 0
-74.7953 -234.152 943.489 0 0
-147.738 -145.775 593.927 0 0
-106.336 -232.873 948.783 0 0
-128.214 -145.952 601.341 0 0
-106.513 -178.439 735.196 0 0
-71.5572 -226.904 934.876 0 0
-143.061 -139.549 581.513 0 0
-103.454 -227.052 946.141 0 0
-171.868 -146.242 616.422 0 0
-125.71 -141.694 597.254 0 0
-107.422 -179.291 755.728 0 0
-68.7089 -220.852 930.909 0 0
-139.156 -134.139 571.999 0 0
-100.37 -220.784 941.469 0 0
-167.256 -140.415 605.819 0 0
-124.492 -138.892 599.25 0 0
-112.298 -186.701 805.521 0 0
-65.9743 -215.143 928.235 0 0
-136.464 -129.937 567.305 0 0
-96.7391 -213.306 931.292 0 0
-159.227 -131.826 582.503 0 0
-126.499 -209.456 925.531 0 0
-63.2975 -209.606 926.193 0 0
-133.42 -125.432 561.026 0 0
-94.1735 -208.171 931.095 0 0
-153.666 -125.403 567.839 0 0
-125.162 -206.363 934.433 0 0
-60.8767 -204.916 927.883 0 0
-130.14 -120.744 553.595 0 0
-91.1399 -201.998 926.131 0 0
-149.324 -120.056 557.423 0 0
-122.424 -200.953 933.035 0 0
-58.1822 -199.302 925.368 0 0
-127.721 -116.889 549.696 0 0
-113.627 -147.319 692.8 0 0
-88.726 -197.196 927.361 0 0
-144.954 -114.755 546.691 0 0
-119.639 -195.469 931.208 0 0
-55.5945 -194.04 924.399 0 0
-125.264 -113.023 545.543 0 0
-121.355 -155.89 752.455 0 0
-86.0972 -191.917 926.35 0 0
-141.19 -109.998 538.042 0 0
-117.023 -190.264 930.651 0 0
-53.1543 -189.294 925.906 0 0
-176.497 -120.593 597.856 0 0
-145.324 -184.889 916.613 0 0
-83.7917 -187.359 928.862 0 0
-137.694 -105.505 530.243 0 0
-114.52 -185.243 930.983 0 0
-50.84 -185.021 929.869 0 0
-163.275 -109.549 558.237 0 0
-145.239 -182.927 932.149 0 0
-81.0833 -181.902 926.926 0 0
-176.259 -104.855 541.861 0 0
-134.842 -101.55 524.782 0 0
-111.739 -179.773 929.019 0 0
-48.3475 -180.121 930.816 0 0
-154.799 -101.922 534.25 0 0
-143.108 -178.35 934.869 0 0
-78.5879 -176.92 927.376 0 0
-165.22 -96.3202 512.229 0 0
-131.789 -97.4839 518.417 0 0
-109.21 -174.71 929.105 0 0
-45.8417 -175.179 931.6 0 0
-150.641 -97.2595 524.853 0 0
-140.624 -173.327 935.346 0 0
-76.1373 -172.041 928.405 0 0
-107.137 -170.373 933.168 0 0
-43.2527 -169.919 930.685 0 0
-146.616 -92.7511 515.739 0 0
-138.019 -168.154 935.016 0 0
-73.7154 -167.228 929.866 0 0
-159.09 -88.86 501.728 0 0
-167.723 -164.651 929.664 0 0
-104.506 -165.145 932.456 0 0
-40.8098 -165.241 932.995 0 0
-177.617 -88.5201 507.644 0 0
-142.963 -88.5424 507.772 0 0
-135.16 -162.679 932.927 0 0
-71.0979 -161.972 928.876 0 0
-162.37 -88.6567 516.524 0 0
-166.36 -160.707 936.298 0 0
-101.784 -159.775 930.867 0 0
-38.4212 -160.817 936.938 0 0
-140.161 -84.9101 502.702 0 0
-132.841 -157.852 934.549 0 0
-68.5123 -156.788 928.245 0 0
-159.321 -84.9599 511.271 0 0
-164.06 -155.835 937.779 0 0
-99.3874 -154.917 932.256 0 0
-35.9371 -156.029 938.948 0 0
-130.079 -152.5 933.059 0 0
-66.1989 -152.228 931.395 0 0
-154.67 -80.4725 500.74 0 0
-161.692 -150.89 938.914 0 0
-96.6702 -149.559 930.629 0 0
-33.4487 -151.249 941.147 0 0
-127.064 -146.862 929.662 0 0
-63.7877 -147.447 933.366 0 0
-158.513 -145.196 935.297 0 0
-93.8723 -144.081 928.117 0 0
-30.9951 -146.667 944.773 0 0
-124.651 -141.926 930.619 0 0
-61.2673 -142.417 933.837 0 0
2.61737 -146.34 959.561 0 0
-156.066 -140.182 935.958 0 0
-91.5407 -139.32 930.203 0 0
-28.2892 -140.887 940.668 0 0
-121.552 -136.217 926.392 0 0
-59.0078 -137.997 938.498 0 0
5.27377 -141.996 965.695 0 0
-153.845 -135.361 938.013 0 0
-89.3076 -134.701 933.439 0 0
-25.6873 -135.583 939.548 0 0
-119.166 -131.313 927.524 0 0
-56.516 -133.039 939.721 0 0
7.94376 -137.241 969.397 0 0
-150.475 -129.54 933.016 0 0
-86.875 -129.776 934.718 0 0
-23.2527 -131.2 944.976 0 0
-116.573 -126.18 927.073 0 0
-53.8422 -127.653 937.89 0 0
10.6902 -133.145 978.245 0 0
-146.957 -123.625 926.91 0 0
-84.3351 -124.688 934.885 0 0
-20.6635 -125.997 944.694 0 0
50.442 -144.796 1085.65 0 0
-113.948 -121.015 926.329 0 0
-51.2075 -122.356 936.59 0 0
13.3882 -128.027 980.003 0 0
-144.731 -118.81 928.885 0 0
-81.7999 -119.607 935.117 0 0
-18.1871 -121.539 950.225 0 0
-111.279 -115.809 925.193 0 0
-48.5887 -117.094 935.46 0 0
16.055 -122.578 979.274 0 0
-141.749 -113.378 925.994 0 0
-78.935 -114.049 931.473 0 0
-15.484 -115.556 943.783 0 0
57.4462 -135.446 1106.23 0 0
-108.495 -110.491 923.022 0 0
-46.2032 -112.397 938.947 0 0
18.7922 -117.602 982.428 0 0
-138.575 -107.815 921.713 0 0
-76.2795 -108.8 930.139 0 0
-12.9036 -110.391 943.733 0 0
-105.509 -104.984 918.986 0 0
-43.8046 -107.677 942.559 0 0
21.4813 -112.251 982.599 0 0
-135.587 -102.423 918.546 0 0
-73.6175 -103.547 928.631 0 0
-10.4027 -106.034 950.929 0 0
-162.481 -97.961 900.609 0 0
-102.652 -99.6256 915.912 0 0
-41.0339 -102.041 938.118 0 0
24.2141 -107.087 984.508 0 0
-133.2 -97.4911 919.393 0 0
-70.7458 -98.0089 924.276 0 0
-7.7716 -100.425 947.058 0 0
-160.228 -93.1587 901.782 0 0
-100.589 -95.0348 919.943 0 0
-38.161 -96.135 930.592 0 0
26.81 -101.345 981.026 0 0
-129.642 -91.726 912.046 0 0
-68.371 -93.1627 926.331 0 0
-5.20882 -95.7238 951.797 0 0
-157.563 -88.1173 900.642 0 0
-97.5076 -89.4851 914.623 0 0
-35.7835 -91.4725 934.935 0 0
29.5466 -96.1608 982.855 0 0
-126.812 -86.5101 909.629 0 0
-66.1024 -88.4511 930.038 0 0
-2.61087 -90.6496 953.154 0 0
-155.071 -83.1775 900.469 0 0
-94.8454 -84.3408 913.062 0 0
-33.4668 -86.982 941.656 0 0
32.3623 -91.1513 986.792 0 0
-124.368 -81.5651 909.94 0 0
-63.0501 -82.6975 922.573 0 0
-0.00552603 -86.0593 960.077 0 0
-152.97 -78.4394 902.593 0 0
-92.2118 -79.2308 911.699 0 0
-30.9446 -81.9714 943.235 0 0
-121.412 -76.296 906.44 0 0
-60.478 -77.5895 921.807 0 0
2.6142 -80.6694 958.398 0 0
-149.555 -73.0421 896.908 0 0
-89.7082 -74.2372 911.583 0 0
-28.2755 -76.5688 940.214 0 0
-118.395 -71.0172 902.33 0 0
-58.1896 -72.8396 925.485 0 0
-147.16 -68.1652 897.255 0 0
-86.976 -69.0628 909.07 0 0
-25.5217 -70.9179 933.489 0 0
40.3741 -74.8188 984.836 0 0
-115.28 -65.7145 897.281 0 0
-55.7833 -67.9305 927.539 0 0
-144.542 -63.1875 896.226 0 0
-84.4853 -64.0886 909.007 0 0
-22.9442 -65.7407 932.44 0 0
43.2364 -69.7095 988.732 0 0
-113.055 -60.9319 899.091 0 0
-53.2313 -62.8401 927.249 0 0
10.4967 -65.096 960.536 0 0
-142.236 -58.347 897.135 0 0
-81.8761 -59.0294 907.627 0 0
-20.5174 -61.0058 938.016 0 0
45.9615 -64.3357 989.216 0 0
-110.523 -55.9788 898.483 0 0
-50.7756 -57.8608 928.69 0 0
13.0919 -59.7066 958.316 0 0
-139.419 -53.3032 894.796 0 0
-78.9877 -53.79 902.969 0 0
-17.9941 -56.0045 940.143 0 0
48.9355 -59.2548 994.705 0 0
-107.745 -50.9148 895.808 0 0
-48.0768 -52.6084 925.605 0 0
15.7016 -54.4335 957.717 0 0
-136.313 -48.1779 890.479 0 0
-76.4478 -48.8078 902.122 0 0
-15.479 -51.0451 943.474 0 0
51.5608 -53.7193 992.901 0 0
-105.485 -46.1002 897.416 0 0
-45.5972 -47.6009 926.631 0 0
18.3512 -49.283 959.374 0 0
-134.001 -43.3494 891.293 0 0
-73.9067 -43.8315 901.206 0 0
-12.9186 -45.9534 944.834 0 0
-103.061 -41.2055 897.664 0 0
-43.075 -42.5457 926.86 0 0
21.0234 -44.1428 961.652 0 0
-131.53 -38.4666 891.056 0 0
-71.6483 -39.0163 903.792 0 0
-10.3637 -40.8973 947.363 0 0
-99.7451 -35.9871 889.974 0 0
-40.3711 -37.3212 922.965 0 0
23.7404 -39.031 965.25 0 0
-129.094 -33.5952 891.053 0 0
-69.0339 -34.0045 901.911 0 0
-7.77861 -35.7389 947.911 0 0
-153.236 -30.1587 862.433 0 0
-97.5774 -31.2065 892.397 0 0
-37.7529 -32.1942 920.641 0 0
26.3172 -33.6752 962.992 0 0
-125.971 -28.568 886.218 0 0
-66.6632 -29.1152 903.192 0 0
-5.15758 -30.3802 942.433 0 0
-153.196 -25.8346 875.677 0 0
-95.4666 -26.4188 895.478 0 0
-35.1424 -27.0887 918.183 0 0
-122.549 -23.5314 879.052 0 0
-64.2809 -24.2102 904.41 0 0
-2.57915 -25.205 941.573 0 0
-155.332 -21.6797 901.982 0 0
-92.7068 -21.4512 892.475 0 0
-32.7113 -22.1223 920.398 0 0
-120.355 -18.7581 880.574 0 0
-61.8677 -19.2843 905.272 0 0
-154.001 -16.873 908.678 0 0
-89.7992 -16.4862 887.847 0 0
-30.2201 -17.1046 921.15 0 0
-118.704 -14.0336 886.221 0 0
-59.4359 -14.3456 905.924 0 0
-170.042 -9.47706 723.336 0 0
-150.659 -11.8379 903.53 0 0
-87.3522 -11.6298 887.642 0 0
-27.8267 -12.123 925.29 0 0
-175.784 -6.80378 656.2 0 0
-176.753 -9.18412 885.776 0 0
-116.272 -9.18802 886.152 0 0
-56.7104 -9.35191 901.959 0 0
5.12076 -9.72225 937.677 0 0
-210.741 -6.92502 907.008 0 0
-148.071 -6.89295 902.808 0 0
-85.3532 -6.81125 892.108 0 0
-25.3581 -7.08154 927.508 0 0
39.505 -7.35739 963.638 0 0
-178.515 -4.44587 907.028 0 0
-113.844 -4.34331 886.104 0 0
-54.1557 -4.41375 900.475 0 0
7.68384 -4.59611 937.678 0 0
-214.051 -2.0212 932.223 0 0
-144.82 -1.94689 897.95 0 0
-83.339 -1.94412 896.673 0 0
-22.7618 -2.0056 925.028 0 0
42.2054 -2.0926 965.155 0 0
-175.728 0.511828 905.442 0 0
-112.041 0.50368 891.028 0 0
-51.772 0.509786 901.829 0 0
10.2779 0.531652 940.51 0 0
-210.059 3.05413 925.856 0 0
-142.143 2.95745 896.546 0 0
-81.0095 2.96231 898.02 0 0
-20.1677 3.0415 922.026 0 0
-190.023 4.41405 731.754 0 0
-172.306 5.4319 900.492 0 0
-109.709 5.37987 891.867 0 0
-49.4609 5.45694 904.644 0 0
12.8711 5.68318 942.15 0 0
-206.288 8.06717 920.324 0 0
-139.571 7.8519 895.766 0 0
-78.5066 7.86683 897.469 0 0
-17.5847 8.0534 918.753 0 0
48.0272 8.55732 976.242 0 0
-169.103 10.3096 896.561 0 0
-107.372 10.2652 892.706 0 0
-47.2408 10.4584 909.509 0 0
-202.098 12.9909 912.764 0 0
-136.586 12.6991 892.262 0 0
-76.4549 12.8406 902.206 0 0
-15.0722 13.075 918.679 0 0
-237.824 15.872 935.524 0 0
-166.109 15.1614 893.638 0 0
-104.935 15.1461 892.737 0 0
-44.8709 15.4707 911.871 0 0
18.0797 16.0358 945.182 0 0
-198.482 17.8798 907.636 0 0
-133.728 17.5221 889.48 0 0
-74.0222 17.7809 902.614 0 0
-12.6504 18.2262 925.219 0 0
-238.414 21.2671 948.04 0 0
-162.74 19.9334 888.583 0 0
-102.315 19.9913 891.168 0 0
-42.3117 20.4236 910.436 0 0
20.6392 21.1783 944.081 0 0
-194.966 22.7211 902.841 0 0
-131.05 22.3427 887.809 0 0
-71.6653 22.7504 904.006 0 0
-10.1762 23.4103 930.23 0 0
-233.303 26.1672 937.907 0 0
-159.81 24.7135 885.802 0 0
-99.5042 24.77 887.825 0 0
-39.9733 25.4966 913.87 0 0
-192.151 27.6069 901.213 0 0
-128.408 27.1506 886.318 0 0
-69.2711 27.7232 905.009 0 0
-7.63776 28.5116 930.747 0 0
-228.906 31.046 930.457 0 0
-157.04 29.4906 883.839 0 0
-97.1484 29.6452 888.474 0 0
-37.5947 30.5897 916.781 0 0
-225.073 29.1415 807.247 0 0
-188.577 32.3433 895.939 0 0
-125.789 31.9462 884.939 0 0
-66.7848 32.6646 904.84 0 0
-5.09896 33.6351 931.723 0 0
-224.586 35.8492 923.156 0 0
-154.697 34.3388 884.261 0 0
-95.1304 34.652 892.326 0 0
-35.0495 35.5619 915.758 0 0
-222.471 33.495 805.813 0 0
-185.492 37.1141 892.879 0 0
-122.783 36.609 880.727 0 0
-64.3081 37.6093 904.793 0 0
721.885 63.0902 1517.8 0 0
-220.868 40.6759 918.189 0 0
-151.844 39.0608 881.729 0 0
-92.6325 39.5051 891.76 0 0
-32.6977 40.7568 920.015 0 0
-241.767 41.5995 884.464 0 0
-182.646 41.9021 890.898 0 0
-119.824 41.234 876.691 0 0
-62.0949 42.7346 908.597 0 0
727.252 71.5076 1520.35 0 0
-217.302 45.4744 913.746 0 0
-149.397 43.87 881.508 0 0
-90.053 44.3103 890.355 0 0
-30.4298 46.1611 927.543 0 0
-254.726 49.4178 941.283 0 0
-179.451 46.5755 887.143 0 0
-117.474 46.0448 877.035 0 0
-59.5993 47.6922 908.414 0 0
733.961 80.0978 1525.66 0 0
-213.903 50.258 909.912 0 0
-146.441 48.5082 878.232 0 0
-87.5953 49.1643 890.112 0 0
-27.8917 51.2268 927.453 0 0
-254.939 55.1667 951.686 0 0
-176.07 51.1475 882.351 0 0
-114.886 50.7552 875.583 0 0
-57.1935 52.7296 909.643 0 0
-210.779 55.0661 907.173 0 0
-143.863 53.2437 877.15 0 0
-85.2968 54.1159 891.518 0 0
-25.3805 56.35 928.325 0 0
-249.758 59.7521 941.954 0 0
-173.875 56.0413 883.455 0 0
-112.671 55.6304 876.978 0 0
-54.8586 57.8623 912.163 0 0
-206.705 59.566 900.229 0 0
-141.247 57.9492 875.794 0 0
-83.224 59.2489 895.436 0 0
-22.99 61.8204 934.299 0 0
-244.958 64.3175 933.476 0 0
-170.502 60.5309 878.519 0 0
-110.255 60.4142 876.826 0 0
-52.4844 62.992 914.238 0 0
-226.826 55.0394 768.337 0 0
-203.148 64.1412 895.396 0 0
-138.429 62.5458 873.125 0 0
-80.422 63.8627 891.508 0 0
-20.5494 67.2991 939.479 0 0
-239.177 68.4958 921.04 0 0
-167.97 65.2826 877.833 0 0
-107.687 65.1038 875.428 0 0
-50.0342 68.0563 915.13 0 0
-200.768 69.0595 895.698 0 0
-135.817 67.2072 871.673 0 0
-77.3571 68.1829 884.329 0 0
-17.9457 72.2912 937.612 0 0
-235.637 73.2132 917.059 0 0
-165.015 69.8467 874.89 0 0
-105.168 69.8059 874.379 0 0
-47.7368 73.3729 919.059 0 0
-225.876 64.3666 779.557 0 0
-197.534 73.6632 892.149 0 0
-132.962 71.718 868.591 0 0
-74.687 72.771 881.344 0 0
-15.4422 77.7162 941.236 0 0
-231.667 77.7357 911.304 0 0
-162.249 74.4574 872.871 0 0
-102.784 74.5906 874.433 0 0
-45.1476 78.2638 917.494 0 0
-246.765 75.689 859.759 0 0
-194.029 78.1113 887.275 0 0
-130.13 76.1986 865.548 0 0
-72.2882 77.6003 881.47 0 0
-12.9451 83.349 946.77 0 0
-228.101 82.3297 907.029 0 0
-159.515 79.0569 870.972 0 0
-100.319 79.3117 873.78 0 0
-42.5494 83.1031 915.55 0 0
-266.25 87.571 936.569 0 0
-189.895 82.2219 879.36 0 0
-127.552 80.7958 864.108 0 0
-70.2076 82.807 885.618 0 0
-10.3827 88.7427 949.1 0 0
-223.436 86.4427 898.242 0 0
-156.871 83.6781 869.515 0 0
-97.7161 83.9048 871.87 0 0
-40.1718 88.3835 918.409 0 0
-268.131 94.2523 952.343 0 0
-186.757 86.6883 875.915 0 0
-125.145 85.4889 863.797 0 0
-67.9279 87.831 887.462 0 0
-219.26 90.6418 891.247 0 0
-153.736 87.9973 865.245 0 0
-95.1737 88.5231 870.414 0 0
-37.7166 93.5412 919.755 0 0
-261.719 98.0316 938.679 0 0
-183.839 91.2172 873.43 0 0
-122.969 90.3476 865.103 0 0
-65.5271 92.718 887.8 0 0
-215.901 95.1075 887.453 0 0
-150.891 92.4338 862.504 0 0
-92.8556 93.343 870.988 0 0
-35.3524 98.989 923.671 0 0
762.63 160.756 1500.02 0 0
-255.757 101.811 926.379 0 0
-180.461 95.4678 868.659 0 0
-120.327 94.858 863.111 0 0
-62.9603 97.3549 885.829 0 0
-210.842 98.7262 876.507 0 0
-148.225 96.9475 860.715 0 0
-90.1842 97.7894 868.19 0 0
-32.9262 104.351 926.445 0 0
763.657 168.279 1494.01 0 0
-250.37 105.671 915.937 0 0
-177.39 99.8246 865.26 0 0
-117.716 99.3637 861.266 0 0
-60.7204 102.504 888.484 0 0
-206.984 102.792 870.361 0 0
-145.017 101.057 855.667 0 0
-87.2762 101.911 862.901 0 0
-30.5224 109.879 930.364 0 0
-245.338 109.549 906.592 0 0
-173.74 103.787 858.908 0 0
-114.878 103.636 857.656 0 0
-58.4283 107.613 890.566 0 0
-204.893 107.702 871.585 0 0
-142.666 105.726 855.595 0 0
-84.8723 106.572 862.442 0 0
-28.0697 115.336 933.371 0 0
-240.652 113.465 898.351 0 0
-171.185 108.352 857.872 0 0
-112.531 108.322 857.634 0 0
-55.9787 112.45 890.322 0 0
770.759 201.213 1593.1 0 0
-269.603 115.699 896.634 0 0
-201.204 111.741 865.961 0 0
-139.544 109.786 850.815 0 0
-82.3043 111.003 860.241 0 0
-25.5977 120.813 936.27 0 0
-236.081 117.325 890.374 0 0
-168.036 112.503 853.785 0 0
-110.104 112.926 856.99 0 0
-53.6711 117.594 892.418 0 0
-267.763 120.876 898.683 0 0
-197.78 115.856 861.359 0 0
-136.414 113.767 845.828 0 0
-80.3541 116.286 864.558 0 0
-23.0965 126.249 938.629 0 0
-232.457 121.57 885.839 0 0
-164.905 116.607 849.68 0 0
-107.607 117.443 855.768 0 0
-51.4101 122.899 895.524 0 0
-275.193 130.477 932.173 0 0
-195.197 120.423 860.35 0 0
-133.669 118.009 843.1 0 0
-77.8637 120.815 863.148 0 0
-228.31 125.464 879.192 0 0
-162.223 120.984 847.8 0 0
-104.523 121.257 849.714 0 0
-49.0359 127.987 896.872 0 0
-270.458 134.485 924.698 0 0
-191.324 124.14 853.564 0 0
-131.122 122.392 841.545 0 0
-75.6025 125.697 864.27 0 0
-224.552 129.489 873.919 0 0
-159.638 125.409 846.38 0 0
-101.756 125.355 846.019 0 0
818.98 245.275 1655.36 0 0
-265.196 138.117 915.261 0 0
-188.841 128.704 852.887 0 0
-129.005 127.173 842.739 0 0
-73.1809 130.316 863.572 0 0
569.018 334.195 2214.62 0 0
669.093 310.413 2057.02 0 0
-221.305 133.748 870.542 0 0
-156.584 129.424 842.399 0 0
-99.6617 130.265 847.872 0 0
509.328 349.127 2272.41 0 0
619.283 325.314 2117.42 0 0
735.463 313.172 2038.38 0 0
-260.278 141.803 906.841 0 0
-185.536 132.671 848.437 0 0
-126.64 131.716 842.332 0 0
-71.0477 135.471 866.344 0 0
447.939 366.085 2341.13 0 0
567.834 341.944 2186.75 0 0
672.978 320.83 2051.73 0 0
-217.855 137.83 866.286 0 0
-154.142 133.908 841.638 0 0
-97.5373 135.168 849.555 0 0
504.122 353.543 2222.08 0 0
622.641 335.58 2109.18 0 0
741.389 324.471 2039.36 0 0
-255.947 145.707 900.325 0 0
-182.603 136.849 845.591 0 0
-123.936 135.881 839.61 0 0
-68.4332 139.704 863.235 0 0
434.851 362.632 2240.71 0 0
568.216 350.448 2165.43 0 0
676.51 331.03 2045.45 0 0
-214.677 142.03 863.03 0 0
-151.518 138.214 839.844 0 0
-95.4093 140.097 851.288 0 0
-39.886 150.068 911.875 0 0
502.718 360.331 2189.52 0 0
627.641 346.688 2106.61 0 0
748.724 336.41 2044.16 0 0
-251.483 149.438 893.21 0 0
-179.894 141.16 843.728 0 0
-121.086 139.83 835.779 0 0
-66.2438 144.795 865.459 0 0
452.233 384.452 2297.92 0 0
569.987 359.668 2149.78 0 0
679.312 340.813 2037.08 0 0
-210.704 145.633 856.471 0 0
-148.751 142.354 837.189 0 0
-92.9274 144.51 849.87 0 0
394.614 409.142 2406.18 0 0
519.769 380.4 2237.15 0 0
632.592 357.748 2103.93 0 0
755.463 348.116 2047.28 0 0
802.447 269.828 1586.87 0 0
-246.999 153.056 885.885 0 0
-177.194 145.448 841.855 0 0
-119.001 144.641 837.184 0 0
-63.9551 149.707 866.501 0 0
166.04 456.339 2641.29 0 0
323.358 425.819 2464.64 0 0
463.137 401.017 2321.08 0 0
580.257 374.255 2166.19 0 0
681.784 350.359 2027.87 0 0
780.892 285.308 1651.36 0 0
-207.735 149.862 853.89 0 0
-146.466 146.934 837.208 0 0
-90.8372 149.54 852.055 0 0
252.888 451.058 2570.06 0 0
400.636 421.712 2402.85 0 0
525.455 392.309 2235.32 0 0
636.194 368.007 2096.85 0 0
759.238 358.449 2042.38 0 0
792.423 273.546 1558.62 0 0
-241.745 156.07 875.626 0 0
-174.618 149.815 840.534 0 0
-116.918 149.481 838.656 0 0
-61.6835 154.687 867.865 0 0
333.05 443.226 2486.7 0 0
467.762 412.191 2312.58 0 0
581.233 382.84 2147.91 0 0
686.638 361.082 2025.84 0 0
769.573 288.402 1618.07 0 0
-255.335 149.598 826.638 0 0
-204.779 154.062 851.304 0 0
-143.647 150.954 834.13 0 0
-88.3426 153.909 850.46 0 0
260.401 465.98 2574.88 0 0
405.026 432.522 2390 0 0
528.552 402.237 2222.65 0 0
640.616 378.696 2092.57 0 0
765.289 369.841 2043.64 0 0
-237.832 159.836 870.067 0 0
-171.417 153.601 836.128 0 0
-114.809 154.312 839.999 0 0
-59.4612 159.834 870.059 0 0
338.67 455.238 2478.09 0 0
471.029 422.097 2297.68 0 0
586.294 394.038 2144.94 0 0
688.978 370.438 2016.48 0 0
-274.991 167.464 898.224 0 0
-201.744 158.161 848.325 0 0
-140.728 154.811 830.361 0 0
-85.9235 158.385 849.527 0 0
266.446 478.274 2565.32 0 0
410.855 444.826 2385.91 0 0
534.378 414.194 2221.61 0 0
640.593 386.669 2073.98 0 0
774.867 382.986 2054.22 0 0
-233.965 163.551 864.565 0 0
-169.102 158.145 835.982 0 0
-112.239 158.518 837.957 0 0
-57.0818 164.587 870.041 0 0
344.182 467.073 2469.04 0 0
477.329 434.675 2297.78 0 0
591.011 404.978 2140.79 0 0
691.73 379.946 2008.47 0 0
-273.116 172.741 900.134 0 0
-198.395 161.958 843.945 0 0
-138.222 159.079 828.944 0 0
-83.8254 163.466 851.804 0 0
271.96 489.601 2551.26 0 0
415.193 455.474 2373.43 0 0
539.056 425.239 2215.88 0 0
643.879 396.54 2066.33 0 0
780.677 394.314 2054.73 0 0
-230.54 167.507 860.604 0 0
-166.321 162.231 833.498 0 0
-109.843 162.942 837.148 0 0
-54.8246 169.719 871.967 0 0
349.426 478.51 2458.45 0 0
481.432 445.223 2287.43 0 0
595.997 416.077 2137.69 0 0
694.757 389.545 2001.37 0 0
-264.924 173.899 881.073 0 0
-196.017 166.511 843.638 0 0
-136.149 163.842 830.118 0 0
-81.7272 168.597 854.209 0 0
278.38 502.549 2546.2 0 0
420.083 466.674 2364.44 0 0
542.607 435.343 2205.69 0 0
647.753 406.722 2060.68 0 0
783.223 403.963 2046.71 0 0
-227.467 171.668 857.886 0 0
-164.23 166.977 834.446 0 0
-107.701 167.747 838.291 0 0
-52.6172 175.071 874.893 0 0
354.56 489.759 2447.5 0 0
485.702 455.868 2278.13 0 0
599.403 426.032 2129.03 0 0
700.204 400.473 2001.31 0 0
-261.973 178.347 879.253 0 0
-192.792 170.311 839.635 0 0
-133.871 168.37 830.065 0 0
-79.4654 173.427 854.996 0 0
284.717 515.341 2540.64 0 0
425.795 478.756 2360.27 0 0
547.766 446.692 2202.2 0 0
652.127 417.182 2056.72 0 0
789.496 415.51 2048.47 0 0
-223.101 174.775 850.184 0 0
-161.338 170.892 831.298 0 0
-105.276 172.111 837.227 0 0
-50.531 180.947 880.212 0 0
205.092 531.911 2587.46 0 0
361.194 503.062 2447.12 0 0
489.039 465.57 2264.75 0 0
601.743 435.155 2116.79 0 0
705.142 411.103 1999.8 0 0
894.252 436.719 2124.4 0 0
-260.834 184.046 883.536 0 0
-189.769 174.232 836.425 0 0
-131.606 172.912 830.086 0 0
-77.1606 178.175 855.354 0 0
290.228 526.63 2528.16 0 0
430.674 489.871 2351.69 0 0
548.872 454.66 2182.65 0 0
653.372 425.575 2043.03 0 0
797.731 428.123 2055.26 0 0
-219.764 178.599 846.283 0 0
-158.436 174.743 828.009 0 0
-103.278 177.187 839.59 0 0
-48.2258 186.148 882.054 0 0
210.753 542.424 2570.25 0 0
364.796 512.106 2426.59 0 0
494.651 477.392 2262.1 0 0
605.829 445.477 2110.87 0 0
713.16 423.551 2006.98 0 0
899.31 447.96 2122.64 0 0
-256.213 187.263 875.992 0 0
-187.354 178.682 835.851 0 0
-129.551 177.744 831.461 0 0
-74.7739 182.733 854.797 0 0
295.997 538.374 2518.44 0 0
436.035 501.5 2345.94 0 0
554.196 466.053 2180.13 0 0
657.624 435.861 2038.9 0 0
806.252 440.947 2062.69 0 0
-216.94 182.795 844.294 0 0
-156.583 179.74 830.181 0 0
-100.866 181.566 838.617 0 0
-46.0669 192.021 886.909 0 0
218.181 557.504 2575 0 0
370.072 523.452 2417.72 0 0
500.447 489.381 2260.35 0 0
610.686 456.334 2107.72 0 0
719.402 434.981 2009.09 0 0
906.376 460.206 2125.6 0 0
-254.329 192.438 877.753 0 0
-184.22 182.411 832.015 0 0
-126.77 181.562 828.144 0 0
-72.6888 188.056 857.765 0 0
302.461 551.378 2514.95 0 0
439.739 511.176 2331.58 0 0
557.804 475.964 2170.98 0 0
661.157 445.632 2032.62 0 0
812.655 452.649 2064.63 0 0
-213.504 186.426 839.858 0 0
-153.851 183.726 827.694 0 0
-98.6508 186.296 839.272 0 0
-44.0143 198.547 894.463 0 0
227.559 577.518 2601.75 0 0
376.517 536.437 2416.67 0 0
503.867 499.006 2248.05 0 0
614.948 466.719 2102.59 0 0
723.518 445.117 2005.28 0 0
915.582 473.583 2133.51 0 0
-248.556 194.596 865.999 0 0
-181.953 186.967 832.049 0 0
-124.752 186.456 829.775 0 0
-70.3488 192.758 857.822 0 0
308.474 563.553 2507.95 0 0
445.27 522.933 2327.18 0 0
561.648 486.024 2162.93 0 0
666.601 456.667 2032.28 0 0
820.228 465.03 2069.5 0 0
-210.754 190.606 838.049 0 0
-151.378 187.989 826.545 0 0
-96.4378 191.045 839.978 0 0
234.384 591.018 2598.57 0 0
381.636 547.514 2407.29 0 0
509.758 511.041 2246.93 0 0
618.029 476.16 2093.56 0 0
730.474 457.003 2009.33 0 0
924.242 486.736 2140.06 0 0
-244.715 198.137 860.816 0 0
-178.471 190.229 826.46 0 0
-122.553 191.1 830.244 0 0
-68.12 197.785 859.285 0 0
313.148 573.269 2490.59 0 0
450.201 533.959 2319.81 0 0
564.872 495.49 2152.68 0 0
667.64 464.635 2018.63 0 0
826.689 476.807 2071.51 0 0
-208.327 195.06 837.503 0 0
-148.863 192.177 825.125 0 0
-94.2242 195.808 840.714 0 0
239.831 601.073 2580.74 0 0
386.155 557.698 2394.51 0 0
512.696 520.075 2232.97 0 0
620.53 485.086 2082.75 0 0
739.677 470.347 2019.46 0 0
925.356 495.897 2129.17 0 0
-241.375 202.017 857.311 0 0
-176.692 195.277 828.707 0 0
-120.599 196.151 832.418 0 0
-66.0531 203.35 862.967 0 0
318.355 583.95 2478.14 0 0
455.153 544.978 2312.75 0 0
569.692 506.313 2148.67 0 0
672.111 474.931 2015.49 0 0
830.788 487.215 2067.62 0 0
-277.285 210.267 882.09 0 0
-205.203 198.83 834.108 0 0
-146.587 196.661 825.012 0 0
-92.2279 201.062 843.474 0 0
245.305 611.244 2564.23 0 0
391.331 568.799 2386.16 0 0
517.582 531.032 2227.73 0 0
624.876 495.404 2078.27 0 0
743.321 480.175 2014.38 0 0
935.718 510.013 2139.55 0 0
-238.226 206.007 854.42 0 0
-174.006 199.325 826.708 0 0
-118.38 200.798 832.816 0 0
-63.8662 208.63 865.298 0 0
324.331 596.031 2472.06 0 0
458.834 554.43 2299.52 0 0
575.121 517.66 2147.01 0 0
674.941 484.028 2007.52 0 0
837.247 498.999 2069.62 0 0
-264.06 206.628 847.388 0 0
-203.085 203.552 834.773 0 0
-144.23 201.03 824.43 0 0
-90.0304 205.92 844.487 0 0
251.522 623.3 2556.18 0 0
396.334 579.622 2377.05 0 0
522.028 541.507 2220.74 0 0
629.007 505.521 2073.16 0 0
749.497 491.627 2016.18 0 0
-234.935 209.825 850.96 0 0
-171.455 203.5 825.308 0 0
-115.873 204.943 831.162 0 0
-61.6269 213.797 867.069 0 0
328.831 605.389 2455.2 0 0
464.474 566.215 2296.33 0 0
578.006 526.678 2135.98 0 0
679.372 494.234 2004.4 0 0
844.075 511.023 2072.49 0 0
-262.541 211.903 849.967 0 0
-199.412 206.674 828.993 0 0
-141.922 205.457 824.11 0 0
-87.7571 210.621 844.824 0 0
258.236 636.601 2553.47 0 0
401.703 590.956 2370.39 0 0
525.743 551.178 2210.84 0 0
631.679 514.416 2063.38 0 0
756.54 503.669 2020.27 0 0
-231.198 213.176 845.8 0 0
-168.875 207.613 823.727 0 0
-113.79 209.835 832.545 0 0
-59.4008 219.068 869.175 0 0
334.594 617.063 2448.27 0 0
468.965 576.573 2287.61 0 0
581.812 536.482 2128.55 0 0
681.254 502.539 1993.88 0 0
852.249 523.895 2078.61 0 0
-260.154 216.497 849.76 0 0
-196.978 211.026 828.285 0 0
-139.905 210.317 825.504 0 0
-85.6391 215.721 846.715 0 0
264.197 648.061 2543.66 0 0
407.394 602.749 2365.81 0 0
528.895 560.202 2198.82 0 0
633.755 522.756 2051.84 0 0
764.507 516.365 2026.75 0 0
-227.601 216.576 841.048 0 0
-166.604 212.091 823.631 0 0
-111.463 214.288 832.16 0 0
-57.2542 224.719 872.669 0 0
340.577 629.137 2443.18 0 0
472.046 585.148 2272.35 0 0
585.016 545.68 2119.08 0 0
683.929 511.364 1985.82 0 0
858.868 535.843 2080.88 0 0
-254.392 218.193 838.425 0 0
-194.231 215.019 826.231 0 0
-137.691 214.896 825.757 0 0
-83.6859 221.306 850.386 0 0
270.169 659.573 2534.47 0 0
412.509 613.671 2358.09 0 0
533.486 570.705 2192.98 0 0
639.328 533.943 2051.72 0 0
770.113 527.49 2026.93 0 0
-223.986 219.883 836.137 0 0
-164.102 216.264 822.376 0 0
-109.255 218.97 832.667 0 0
-55.1263 230.567 876.765 0 0
345.305 638.885 2429.46 0 0
477.252 596.313 2267.57 0 0
589.426 555.96 2114.12 0 0
687.837 521.068 1981.44 0 0
865.386 547.745 2082.88 0 0
-253.759 224.242 843.94 0 0
-191.329 218.8 823.461 0 0
-135.462 219.455 825.927 0 0
-81.5702 226.534 852.568 0 0
276.717 672.504 2530.99 0 0
416.141 622.354 2342.25 0 0
538.483 581.615 2188.93 0 0
644.326 544.643 2049.78 0 0
775.459 538.436 2026.42 0 0
-221.243 223.991 834.411 0 0
-161.402 220.143 820.077 0 0
-107.138 223.856 833.91 0 0
-53.1121 237.067 883.123 0 0
350.182 648.899 2417.28 0 0
480.865 605.454 2255.44 0 0
592.081 564.539 2103.03 0 0
692.747 531.513 1979.99 0 0
873.47 560.666 2088.59 0 0
-257.53 234.387 864.339 0 0
-188.804 222.978 822.265 0 0
-133.376 224.26 826.994 0 0
-79.3271 231.45 853.508 0 0
282.3 683.11 2519.07 0 0
422.026 634.382 2339.38 0 0
541.981 590.873 2178.94 0 0
646.174 552.638 2037.94 0 0
781.776 550.062 2028.44 0 0
-218.574 228.147 832.932 0 0
-158.522 223.725 816.789 0 0
-105.117 228.978 835.965 0 0
-52.1324 248.738 908.107 0 0
356.558 661.683 2415.71 0 0
485.312 615.606 2247.49 0 0
595.607 573.895 2095.21 0 0
696.584 541.113 1975.53 0 0
877.795 571.183 2085.31 0 0
-258.528 242.262 875.725 0 0
-186.62 227.551 822.548 0 0
-131.313 229.126 828.242 0 0
-76.9363 235.939 852.867 0 0
288.483 695.189 2512.96 0 0
426.581 644.392 2329.34 0 0
545.663 600.284 2169.89 0 0
650.408 562.623 2033.76 0 0
788.54 562.019 2031.58 0 0
-276.168 235.214 841.93 0 0
-215.084 231.395 828.26 0 0
-156.58 228.616 818.31 0 0
-103.198 234.38 838.942 0 0
-53.7167 274.482 982.484 0 0
361.505 671.812 2404.7 0 0
488.793 624.491 2235.31 0 0
600.196 584.242 2091.24 0 0
700.08 550.416 1970.17 0 0
-253.278 244.294 865.957 0 0
-183.871 231.418 820.316 0 0
-129.022 233.604 828.063 0 0
-74.8944 241.535 856.175 0 0
294.428 706.709 2505.09 0 0
429.704 652.203 2311.88 0 0
550.128 610.518 2164.12 0 0
654.772 572.696 2030.05 0 0
796.234 574.671 2037.06 0 0
-267.371 234.13 821.963 0 0
-212.579 235.656 827.321 0 0
-154.592 233.465 819.629 0 0
-101.085 239.391 840.435 0 0
366.146 681.364 2392.07 0 0
493.509 634.917 2229.01 0 0
603.93 593.725 2084.4 0 0
706.105 561.696 1971.95 0 0
-248.846 246.979 858.833 0 0
-181.4 235.606 819.283 0 0
-126.725 238.068 827.846 0 0
-72.914 247.436 860.422 0 0
299.735 716.721 2492.29 0 0
435.311 663.755 2308.1 0 0
553.764 619.798 2155.25 0 0
657.21 581.043 2020.49 0 0
798.678 583.525 2029.12 0 0
-260.834 234.761 808.66 0 0
-209.882 239.681 825.607 0 0
-152.544 238.245 820.661 0 0
-98.9198 244.313 841.56 0 0
372.7 694.469 2392.17 0 0
498.149 645.222 2222.54 0 0
607.881 603.386 2078.43 0 0
713.776 574.312 1978.28 0 0
899.336 608.388 2095.66 0 0
-244.34 249.471 851.312 0 0
-178.862 239.684 817.917 0 0
-124.999 243.641 831.417 0 0
-70.7017 252.639 862.125 0 0
439.49 673.111 2296.97 0 0
557.259 628.877 2146.03 0 0
660.017 589.663 2012.21 0 0
808.696 597.924 2040.4 0 0
-271.645 251.225 849.376 0 0
-206.867 243.303 822.593 0 0
-150.361 242.83 820.994 0 0
-97.0257 249.96 845.099 0 0
377.95 705.142 2384.04 0 0
502.639 655.306 2215.55 0 0
611.292 612.474 2070.74 0 0
720.347 586.073 1981.48 0 0
905.581 620.198 2096.85 0 0
-240.839 252.891 847.18 0 0
-177.178 244.919 820.472 0 0
-122.856 248.449 832.298 0 0
-68.6579 258.53 866.07 0 0
445.101 684.641 2293.53 0 0
561.085 638.289 2138.25 0 0
662.258 597.722 2002.35 0 0
814.846 609.507 2041.84 0 0
-257.371 244.513 811.682 0 0
-203.388 246.31 817.647 0 0
-148.573 248.08 823.521 0 0
-94.7947 254.792 845.804 0 0
507.559 665.927 2210.6 0 0
615.927 622.758 2067.3 0 0
729.589 600.052 1991.92 0 0
761.245 455.953 1513.57 0 0
-236.883 255.752 841.357 0 0
-174.575 248.889 818.778 0 0
-120.73 253.311 833.326 0 0
-66.8352 265.428 873.186 0 0
450.636 696.045 2289.8 0 0
566.314 649.272 2135.93 0 0
665.911 607.009 1996.9 0 0
-264.99 258.549 842.978 0 0
-201.011 250.603 817.069 0 0
-146.298 252.54 823.386 0 0
-92.7125 260.061 847.905 0 0
510.703 674.185 2198.12 0 0
619.679 632.123 2060.98 0 0
733.036 609.281 1986.51 0 0
770.048 467.057 1522.8 0 0
-233.536 259.19 837.601 0 0
-172.293 253.301 818.57 0 0
-118.551 258.082 834.022 0 0
-64.8383 271.836 878.468 0 0
570.104 658.581 2128.28 0 0
669.719 616.407 1991.99 0 0
709.17 464.068 1499.69 0 0
-259.934 260.4 834.145 0 0
-199.032 255.396 818.115 0 0
-144.043 257.033 823.357 0 0
-90.7629 265.774 851.358 0 0
518.411 688.46 2205.36 0 0
622.162 640.148 2050.6 0 0
740.341 621.716 1991.55 0 0
-230.215 262.592 833.863 0 0
-169.662 257.18 816.679 0 0
-116.572 263.321 836.18 0 0
-63.7175 282.311 896.482 0 0
573.141 666.981 2118.01 0 0
673.002 625.288 1985.61 0 0
-259.534 266.894 840.233 0 0
-196.707 259.752 817.746 0 0
-141.955 261.834 824.303 0 0
-88.3897 270.287 850.914 0 0
625.353 648.854 2042.71 0 0
745.688 632.521 1991.29 0 0
-227.078 266.146 830.728 0 0
-167.134 261.183 815.236 0 0
-114.411 268.183 837.087 0 0
-66.6565 312.478 975.344 0 0
676.52 634.352 1980.02 0 0
-262.698 277.251 858.071 0 0
-194.249 263.92 816.811 0 0
-139.907 266.733 825.517 0 0
-86.1624 275.254 851.889 0 0
628.031 656.982 2033.31 0 0
666.108 483.065 1495.05 0 0
-223.62 269.257 826.337 0 0
-164.752 265.391 814.474 0 0
-112.559 273.822 840.347 0 0
-65.8829 327.208 1004.19 0 0
-262.29 284.04 864.454 0 0
-191.521 267.693 814.704 0 0
-137.581 271.109 825.1 0 0
-83.8473 279.956 852.026 0 0
638.42 673.191 2048.81 0 0
668.441 489.953 1491.13 0 0
-221.168 273.535 825.616 0 0
-162.473 269.758 814.215 0 0
-110.181 278.211 839.729 0 0
-63.2839 333.467 1006.51 0 0
-258.39 287.059 859.345 0 0
-189.08 271.839 813.782 0 0
-135.6 276.177 826.77 0 0
-81.9939 286.274 856.996 0 0
-218.199 277.145 822.932 0 0
-161.058 275.595 818.331 0 0
-108.083 283.319 841.266 0 0
-253.04 288.336 849.27 0 0
-187.232 276.844 815.421 0 0
-133.44 280.908 827.39 0 0
-80.075 292.507 861.555 0 0
-215.123 280.566 819.782 0 0
-159.247 280.821 820.527 0 0
-105.716 287.734 840.727 0 0
-248.956 290.92 843.302 0 0
-185.055 281.382 815.651 0 0
-131.29 285.674 828.094 0 0
-78.1424 298.833 866.238 0 0
744.686 489.508 1418.95 0 0
-213.047 285.267 820.414 0 0
-156.695 284.744 818.91 0 0
-103.802 293.415 843.846 0 0
-245.684 294.371 839.994 0 0
-182.242 284.928 813.047 0 0
-129.298 290.812 829.838 0 0
-76.262 305.521 871.81 0 0
755.925 502.154 1432.91 0 0
-268.198 291.196 824.503 0 0
-210.532 289.379 819.357 0 0
-155.032 290.297 821.958 0 0
-101.585 298.293 844.598 0 0
715.041 510.438 1445.27 0 0
-242.043 297.312 835.353 0 0
-180.138 289.563 813.582 0 0
-126.984 295.242 829.537 0 0
-76.3822 320.8 901.348 0 0
702.278 541.08 1520.27 0 0
772.985 518.81 1457.69 0 0
-264.066 293.616 818.681 0 0
-208.188 293.71 818.944 0 0
-152.725 294.675 821.635 0 0
-99.3523 303.141 845.24 0 0
719.598 518.776 1446.49 0 0
-238.914 300.813 832.406 0 0
-177.935 294.045 813.676 0 0
-125.07 300.627 831.891 0 0
-80.3405 354.027 979.658 0 0
685.169 532.854 1474.5 0 0
771.721 523.22 1447.85 0 0
-275.624 313.798 861.818 0 0
-205.548 297.606 817.349 0 0
-150.701 299.609 822.85 0 0
-97.1856 308.217 846.492 0 0
643.674 542.676 1490.41 0 0
710.966 517.522 1421.33 0 0
-235.906 304.418 829.828 0 0
-175.557 298.232 812.964 0 0
-123.11 305.954 834.015 0 0
-78.9783 365.471 996.254 0 0
676.175 530.693 1446.64 0 0
-272.613 317.746 859.752 0 0
-203.074 301.718 816.384 0 0
-148.635 304.482 823.863 0 0
-95.3314 314.361 850.593 0 0
658.594 560.048 1515.37 0 0
705.47 518.399 1402.68 0 0
-233.023 308.142 827.645 0 0
-172.871 301.867 810.789 0 0
-120.647 310.042 832.748 0 0
-76.3439 371.349 997.414 0 0
666.264 527.621 1417.15 0 0
-267.489 319.136 850.926 0 0
-200.528 305.702 815.107 0 0
-146.477 309.184 824.392 0 0
-92.9854 318.939 850.401 0 0
638.91 547.899 1460.89 0 0
704.796 522.724 1393.76 0 0
-229.947 311.564 824.726 0 0
-171.058 307.023 812.705 0 0
-118.706 315.487 835.112 0 0
-73.6738 377.09 998.176 0 0
667.173 533 1410.88 0 0
-267.396 326.514 858.091 0 0
-198.524 310.508 816.027 0 0
-144.246 313.741 824.523 0 0
-91.2119 325.555 855.57 0 0
634.039 548.221 1440.75 0 0
704.695 527.416 1386.07 0 0
-227.114 315.27 822.632 0 0
-169.349 312.412 815.173 0 0
-116.681 320.762 836.962 0 0
668.043 538.306 1404.6 0 0
-263.538 329.316 853.196 0 0
-195.372 313.491 812.195 0 0
-142.153 318.608 825.454 0 0
-89.3741 332.093 860.391 0 0
637.368 555.567 1439.37 0 0
701.839 529.976 1373.07 0 0
-224.294 318.955 820.542 0 0
-166.917 316.482 814.18 0 0
-114.222 324.849 835.704 0 0
670.107 544.542 1400.89 0 0
-259.019 331.183 846.051 0 0
-193.632 318.721 814.215 0 0
-140.014 323.391 826.144 0 0
-88.053 340.786 870.582 0 0
643.346 565.232 1443.96 0 0
702.173 534.878 1366.42 0 0
-307.358 357.438 906.791 0 0
-221.301 322.347 817.768 0 0
-164.786 321.116 814.645 0 0
-112.161 330.076 837.375 0 0
671.53 550.229 1395.88 0 0
-254.712 333.2 839.48 0 0
-190.973 322.44 812.369 0 0
-137.517 327.339 824.712 0 0
-92.6294 373.601 941.266 0 0
644.764 570.886 1438.32 0 0
709.523 545.125 1373.41 0 0
-218.415 325.848 815.34 0 0
-162.956 326.364 816.633 0 0
-110.367 336.161 841.147 0 0
675.882 558.303 1396.99 0 0
-251.38 336.402 836.03 0 0
-189.136 327.547 814.024 0 0
-135.834 333.249 828.196 0 0
-94.5898 397.812 988.648 0 0
636.794 815.148 2025.82 0 0
648.305 578.401 1437.45 0 0
-215.786 329.693 813.829 0 0
-160.566 330.504 815.832 0 0
-108.125 340.94 841.593 0 0
674.852 561.904 1387.03 0 0
-246.975 338.07 828.914 0 0
-186.886 331.952 813.914 0 0
-133.557 337.743 828.113 0 0
-92.2947 405.004 993.031 0 0
641.179 824.741 2022.18 0 0
653.122 587.057 1439.41 0 0
-213.358 333.824 813.056 0 0
-158.43 335.162 816.313 0 0
-106.107 346.463 843.838 0 0
680.927 571.403 1391.7 0 0
-243.448 340.835 824.641 0 0
-184.338 335.812 812.488 0 0
-131.431 342.629 828.982 0 0
-89.6614 410.805 993.93 0 0
650.302 588.81 1424.61 0 0
-263.919 334.747 804.588 0 0
-211.313 338.553 813.739 0 0
-156.836 341.012 819.648 0 0
-104.094 352.067 846.219 0 0
680.313 575.275 1382.72 0 0
781.092 579.945 1393.94 0 0
-241.57 345.883 825.93 0 0
-181.708 339.49 810.663 0 0
-129.597 348.323 831.755 0 0
-87.0174 416.587 994.762 0 0
653.253 595.739 1422.56 0 0
999.759 702.621 1677.78 0 0
-266.415 345.229 819.023 0 0
-208.633 342.254 811.963 0 0
-154.638 345.587 819.872 0 0
-102.297 358.505 850.517 0 0
683.435 582.274 1381.39 0 0
782.701 585.917 1390.03 0 0
-350.577 415.351 979.031 0 0
-237.96 348.418 821.263 0 0
-179.219 343.398 809.43 0 0
-127.472 353.283 832.728 0 0
-84.3066 422.067 994.861 0 0
652.771 599.501 1413.09 0 0
1005.53 712.633 1679.76 0 0
-272.957 361.331 846.246 0 0
-206.004 346.005 810.353 0 0
-152.527 350.368 820.57 0 0
-100.908 366.552 858.474 0 0
685.318 588.201 1377.58 0 0
779.648 588.346 1377.92 0 0
-234.818 351.565 818.137 0 0
-177.054 347.916 809.646 0 0
-125.217 357.896 832.869 0 0
-81.4332 426.699 992.983 0 0
643.943 595.491 1385.78 0 0
1009.25 721.194 1678.31 0 0
-275.154 372.055 860.347 0 0
-203.127 349.298 807.723 0 0
-150.403 355.134 821.219 0 0
-104.276 392.769 908.246 0 0
686.405 593.416 1372.23 0 0
-232.193 355.442 816.769 0 0
-175.32 353.309 811.866 0 0
-122.909 362.355 832.653 0 0
643.946 599.543 1377.69 0 0
1012.4 729.333 1675.93 0 0
-269.088 371.628 848.633 0 0
-201.192 354.193 808.817 0 0
-148.054 359.37 820.641 0 0
-109.313 427.118 975.345 0 0
691.595 602.171 1375.09 0 0
-228.995 358.397 813.341 0 0
-173.25 358.056 812.567 0 0
-120.703 367.121 833.14 0 0
1020.25 740.872 1681.32 0 0
-264.333 372.833 840.885 0 0
-198.76 358.216 807.92 0 0
-145.512 363.111 818.96 0 0
-108.055 438.157 988.218 0 0
691.782 606.557 1368.03 0 0
-227.372 363.803 815.491 0 0
-170.761 361.93 811.295 0 0
-118.747 372.684 835.4 0 0
958.015 701.148 1571.68 0 0
-259.826 374.25 833.801 0 0
-196.498 362.535 807.7 0 0
-143.687 368.649 821.323 0 0
-105.499 444.171 989.579 0 0
694.86 613.452 1366.73 0 0
-273.38 358.44 793.743 0 0
-223.693 365.89 810.241 0 0
-168.898 367.135 812.999 0 0
-116.878 378.593 838.372 0 0
-70.7972 449.817 996.092 0 0
659.892 626.552 1387.46 0 0
970.748 715.963 1585.46 0 0
-255.955 376.466 828.646 0 0
-194.016 366.431 806.558 0 0
-141.44 373.136 821.316 0 0
-102.831 449.744 989.94 0 0
699.06 621.336 1367.63 0 0
-220.972 369.472 808.388 0 0
-166.825 371.913 813.727 0 0
-115.145 385.043 842.455 0 0
976.891 725.975 1588.4 0 0
-252.851 379.737 825.906 0 0
-192.359 371.9 808.862 0 0
-139.557 378.606 823.447 0 0
-100.184 455.425 990.524 0 0
694.495 621.384 1351.48 0 0
-218.655 373.708 807.991 0 0
-164.46 376.04 813.033 0 0
-113.224 390.968 845.307 0 0
672.75 646.791 1398.42 0 0
999.844 748.593 1618.53 0 0
-249.833 383.085 823.398 0 0
-189.307 374.658 805.285 0 0
-137.448 383.503 824.298 0 0
-97.3494 460.238 989.23 0 0
657.174 682.055 1466 0 0
-253.179 352.4 753.021 0 0
-216.723 378.609 809.024 0 0
-162.413 380.897 813.914 0 0
-112.831 402.43 859.926 0 0
14.8994 1276.78 2728.27 0 0
676.191 654.067 1397.63 0 0
991.611 747.895 1598.13 0 0
-279.623 356.684 757.748 0 0
-246.672 386.162 820.372 0 0
-186.683 378.204 803.467 0 0
-135.35 388.456 825.245 0 0
-94.7925 466.369 990.767 0 0
621.494 930.673 1977.15 0 0
659.748 688.573 1462.82 0 0
-214.076 382.254 807.382 0 0
-160.091 385.113 813.42 0 0
-117.755 433.937 916.544 0 0
22.0139 1271.88 2686.41 0 0
-243.508 389.173 817.278 0 0
-183.778 381.126 800.379 0 0
-133.078 392.921 825.149 0 0
-92.3362 473.076 993.477 0 0
505.529 1334.38 2802.25 0 0
667.133 700.124 1470.28 0 0
-286.777 415.243 867.048 0 0
-211.317 385.66 805.278 0 0
-158.073 390.066 814.477 0 0
-123.313 469.66 980.674 0 0
29.1705 1278.39 2669.34 0 0
602.537 1336.35 2790.36 0 0
-240.166 391.833 813.524 0 0
-181.868 386.092 801.603 0 0
-131.134 398.377 827.111 0 0
500.55 1316.46 2733.24 0 0
654.664 690.765 1434.17 0 0
-285.476 421.562 870.308 0 0
-208.564 389.034 803.154 0 0
-155.906 394.668 814.785 0 0
-121.969 480.284 991.537 0 0
35.9271 1273.84 2629.83 0 0
594.606 1317.14 2719.21 0 0
-237.321 395.246 811.4 0 0
-180.652 392.593 805.954 0 0
-129.433 404.648 830.702 0 0
496.423 1301.01 2670.84 0 0
648.11 687.495 1411.36 0 0
-275.259 414.517 846.212 0 0
-206.532 393.735 803.788 0 0
-154.016 399.997 816.571 0 0
-119.436 486.426 993.012 0 0
42.3865 1266.44 2585.36 0 0
593.908 1314.01 2682.48 0 0
-234.403 398.492 808.984 0 0
-177.996 395.991 803.906 0 0
-127.384 409.904 832.153 0 0
-41.4134 1243.39 2524.23 0 0
496.491 1296.72 2632.5 0 0
662.344 706.275 1433.82 0 0
-1056.26 1139.28 2300.1 0 0
-270.322 415.113 838.077 0 0
-204.458 398.37 804.274 0 0
-151.543 403.819 815.275 0 0
-116.529 491.043 991.372 0 0
48.78 1263.13 2550.15 0 0
221.06 1251.88 2527.44 0 0
589.447 1302.62 2629.87 0 0
685.602 682.622 1378.15 0 0
-1165.94 1180.22 2369.69 0 0
-231.423 401.581 806.308 0 0
-176.154 401.194 805.531 0 0
-125.686 416.363 835.987 0 0
-34.1434 1243.71 2497.16 0 0
136.9 1247.34 2504.44 0 0
492.1 1280.95 2571.94 0 0
666.348 714.203 1434 0 0
934.946 774.342 1554.75 0 0
-270.06 422.871 844.419 0 0
-202.38 403.005 804.75 0 0
-149.756 409.485 817.689 0 0
-113.837 496.539 991.525 0 0
54.8812 1257.16 2510.38 0 0
222.934 1237.74 2471.62 0 0
384.751 1215.37 2426.94 0 0
-228.987 405.578 805.49 0 0
-174.12 405.989 806.308 0 0
-124.328 424.096 842.268 0 0
-26.8099 1233.99 2450.75 0 0
142.927 1253.84 2490.17 0 0
493.275 1279.82 2541.77 0 0
652.779 703.203 1396.58 0 0
932.095 776.923 1542.99 0 0
-1165.84 1130.47 2233.03 0 0
-1028.88 1147.91 2267.47 0 0
-263.968 421.446 832.486 0 0
-199.022 405.048 800.094 0 0
-147.94 415.132 820.014 0 0
-111.65 504.323 996.193 0 0
60.259 1240.33 2450.04 0 0
223.426 1217.13 2404.21 0 0
392.484 1232.09 2433.76 0 0
576.786 1271.76 2512.11 0 0
-226.341 409.178 803.912 0 0
-172.123 410.892 807.28 0 0
-122.72 431.141 847.063 0 0
-19.81 1228.72 2414.07 0 0
145.314 1230.05 2416.68 0 0
304.91 1208.06 2373.48 0 0
650.954 704.73 1384.58 0 0
-1011.98 1148.16 2243.74 0 0
-259.6 422.592 825.831 0 0
-196.424 408.568 798.425 0 0
-145.907 420.215 821.187 0 0
-108.786 509.112 994.909 0 0
65.9533 1234.95 2413.35 0 0
228.913 1224.48 2392.88 0 0
399.803 1247.48 2437.82 0 0
577.902 1272.82 2487.36 0 0
-223.182 411.799 800.463 0 0
-169.9 415.266 807.202 0 0
-125.949 455.838 886.067 0 0
-13.0752 1229.13 2389.2 0 0
151.336 1238.48 2407.39 0 0
310.765 1218.56 2368.65 0 0
653.029 710.439 1380.97 0 0
739.643 703.067 1366.64 0 0
907.106 765.583 1488.16 0 0
-989.453 1141.52 2207.18 0 0
-255.998 424.875 821.516 0 0
-193.968 412.35 797.298 0 0
-143.83 425.198 822.14 0 0
-106.207 515.233 996.228 0 0
70.8186 1218.36 2355.75 0 0
235.474 1237.66 2393.08 0 0
402.085 1247.21 2411.54 0 0
564.784 1242.6 2402.63 0 0
-1208.38 1143.48 2199.35 0 0
-1044.16 1128.43 2170.41 0 0
-220.878 415.956 800.043 0 0
-168.083 420.653 809.077 0 0
-135.389 504.92 971.155 0 0
-6.39871 1214.52 2335.99 0 0
154.7 1226.15 2358.36 0 0
316.377 1228.16 2362.21 0 0
480.29 1234.56 2374.52 0 0
674.899 737.77 1419.01 0 0
747.062 714.059 1373.41 0 0
915.713 777.573 1495.57 0 0
-252.651 427.501 817.949 0 0
-192.187 417.575 798.956 0 0
-142.263 431.756 826.09 0 0
-103.354 520.021 994.968 0 0
75.9616 1210.58 2316.23 0 0
239.763 1239.11 2370.81 0 0
400.941 1236.54 2365.9 0 0
563.188 1237.79 2368.3 0 0
696.255 711.926 1362.14 0 0
-1019.54 1119.77 2131.34 0 0
-891.195 1141.94 2173.54 0 0
-218.903 420.738 800.819 0 0
-166.281 426.125 811.073 0 0
-135.527 520.963 991.585 0 0
-0.0132613 1210.48 2303.99 0 0
160.563 1234.55 2349.81 0 0
322.23 1238.75 2357.8 0 0
481.265 1233.4 2347.61 0 0
674.796 741.154 1410.69 0 0
748.261 719.112 1368.74 0 0
911.013 778.243 1481.28 0 0
-1076.7 1112.42 2106.4 0 0
-953.689 1137.39 2153.66 0 0
-248.391 428.482 811.338 0 0
-190.345 422.702 800.393 0 0
-140.296 437.182 827.812 0 0
81.513 1211.65 2294.28 0 0
240.786 1224.32 2318.26 0 0
401.003 1229.83 2328.7 0 0
555.609 1219.89 2309.88 0 0
688.644 707.725 1340.09 0 0
-1002.32 1118.71 2107.39 0 0
-216.48 424.656 799.953 0 0
-164.229 430.992 811.889 0 0
-133.059 527.344 993.394 0 0
6.18651 1204 2268.05 0 0
160.324 1197.64 2256.07 0 0
321.165 1223.04 2303.92 0 0
909.801 781.819 1472.77 0 0
-246.175 432.921 811.345 0 0
-187.917 426.533 799.373 0 0
-138.436 442.994 830.223 0 0
-67.9914 1206.35 2260.84 0 0
86.3489 1204.17 2256.76 0 0
246.046 1231.6 2308.16 0 0
401.389 1224.32 2294.52 0 0
548.169 1202.35 2253.34 0 0
-1123.36 1113.17 2075.58 0 0
-1018.47 1155.08 2153.72 0 0
-214.589 429.621 801.057 0 0
-161.933 435.226 811.508 0 0
-130.412 533.056 993.918 0 0
12.1646 1194.65 2227.5 0 0
165.849 1205.31 2247.37 0 0
322.242 1215.94 2267.19 0 0
572.794 1101.85 2054.47 0 0
911.727 788.056 1469.38 0 0
-926.322 1141.72 2118.01 0 0
-242.798 435.278 807.489 0 0
-186.128 431.821 801.075 0 0
-136.951 450.113 835.01 0 0
-61.0451 1203.6 2232.81 0 0
90.7632 1193.44 2213.97 0 0
249.277 1229.04 2280.01 0 0
403.622 1224.61 2271.79 0 0
548.753 1202.45 2230.68 0 0
649.072 1113.08 2064.88 0 0
-1111.19 1117.99 2063.53 0 0
-211.636 432.441 798.178 0 0
-159.944 440.292 812.67 0 0
-127.851 539.145 995.127 0 0
18.2401 1205.95 2225.88 0 0
170.262 1205.34 2224.76 0 0
329.353 1231.75 2273.5 0 0
570.633 1098.11 2026.84 0 0
